0.0772775    0.193584    1.16627
-0.314434    0.85031    0.468452
-1.40356    0.808242    -3.04971
-1.67532    -0.294189    -2.20368
-0.585021    -1.57355    0.720437
-0.570293    -1.90517    -0.641986
0.746931    -0.193473    -0.777998
-0.94632    0.0728936    0.492374
-0.10568    -0.532266    -0.876125
-0.767257    -0.543027    -0.455052
-0.425208    -0.596894    -0.27624
-0.186689    0.136681    1.23096
-0.0612701    -1.19802    0.100249
0.460844    -0.890169    0.207513
-1.3335    0.262689    2.08958
-1.34575    -0.48136    0.116246
0.279153    -1.45613    -0.190408
0.33959    -0.98409    -0.0761165
0.878588    0.0725379    -0.163978
-0.938519    0.838527    -1.25067
-0.622651    0.668326    0.391652
0.359428    -0.276026    0.00729498
-0.0647118    -0.671652    0.384205
-1.257    1.05154    -1.23245
-2.01127    0.809782    -1.29467
-0.606507    0.290442    -0.644234
-0.19099    -0.726296    1.75839
0.0573711    -1.01296    0.852182
-0.522002    0.195929    0.378673
-0.616442    -0.00298457    -0.38404
0.332623    -0.416737    -1.5604
0.914047    -1.16191    1.10024
-0.129121    -1.44401    -0.151383
0.260856    -1.70841    0.737489
-0.374648    -0.341673    0.775937
-0.461372    0.126331    -0.0319709
-0.129098    -0.22568    -0.0538659
1.03045    -0.304703    1.40604
0.539672    0.608331    1.67557
-0.759396    0.019572    -0.302133
-0.879903    -0.813246    0.822226
0.817575    -0.933093    -0.391632
0.178461    1.58857    0.402713
-0.671463    0.972557    0.160543
-0.669817    1.09389    -0.449152
-0.25108    1.46278    1.79179
-0.297221    3.16976    0.102238
-1.27979    0.906436    0.143031
-0.643145    -0.431816    1.8282
-1.21307    0.673017    1.87103
0.645348    1.14381    1.39062
-0.03877    -0.247906    1.1075
-0.884885    -0.297104    1.50954
0.276794    -0.613471    1.02816
-0.805614    0.660792    -0.044054
1.80538    0.783112    1.01699
0.305474    0.521943    0.442204
-0.170639    0.570032    0.475575
0.22545    -0.215912    1.69409
-0.993859    1.11543    0.432752
0.000724953    1.17187    0.0361502
-1.82194    0.57901    0.499927
-1.82194    0.57901    0.499927
0.534907    -0.763469    -0.915824
0.670027    0.0161912    -0.178319
0.795039    -0.0816471    -0.697614
0.300889    -0.0576484    0.378908
0.104529    0.677008    0.483361
0.564552    1.01718    0.987822
0.53462    1.0607    0.634018
-2.3522    -1.4432    0.885853
-1.15419    -2.02091    -0.897449
0.11856    -1.50564    -3.69676
-0.584607    -2.73087    -3.41782
-0.00684262    -1.28025    -4.28037
3.56706    -1.61618    -2.75653
2.48143    -0.116075    -2.09403
2.37796    1.36949    -1.32555
0.85296    0.375518    -1.26394
-0.440457    1.82256    -0.0333029
0.365143    0.0012233    -2.35379
-1.01557    -0.231973    -1.66803
1.0921    -0.823469    -0.0435159
-1.07683    -1.81115    -1.38748
1.25069    0.156089    -0.624705
-0.328961    0.743443    -0.389726
0.244903    -1.18964    0.234075
1.09853    -1.86285    -0.201878
-0.209138    0.245245    -0.454904
0.354776    0.334379    -0.579454
-0.171327    0.406032    0.0433723
0.0895011    0.681502    -0.632069
0.222168    1.29407    -0.102475
1.26764    2.21275    1.79925
1.26369    -0.445966    -0.191244
0.566394    1.18571    -0.528451
-0.415708    1.8182    -2.07816
-1.11842    0.947329    1.51328
1.80652    2.09038    -0.146691
1.11618    2.13314    -1.24918
-0.849049    -0.872426    0.588025
-0.962841    -0.6281    -0.9545
-0.127369    -0.674193    -0.0496358
0.836112    -1.01821    1.0722
-1.72834    0.00678939    -1.08856
-1.57466    0.800174    -0.247329
-0.0206562    0.139807    -0.326994
0.44856    0.817996    0.973407
-0.581479    1.90243    -0.627575
0.0400004    0.297261    0.365071
-0.314796    -0.467593    0.123577
-0.863272    -0.877418    -0.217731
0.0826698    1.28884    -0.41349
0.569248    -1.20384    1.11482
-1.49797    -1.06852    0.201216
-0.138083    -0.160256    0.414356
1.24054    -0.24751    0.529963
-0.975193    1.67068    -1.29508
0.219102    0.448502    -0.45111
0.207371    1.23602    0.779692
0.553981    1.03874    0.563773
1.96939    -0.114044    0.337108
0.701664    0.599675    -0.920232
-0.693194    -0.214787    0.413518
0.211785    0.0895128    1.13726
-0.0212984    0.456004    -0.615531
-0.325014    1.14572    0.33878
-0.976089    -0.358996    1.58998
-0.477257    2.08279    0.134849
-1.04442    2.6963    -0.621593
-0.0395152    0.00913139    -0.389208
-0.477936    -0.0429976    -0.738864
-1.0014    -0.61708    0.425288
-0.213958    2.36927    -0.145345
1.12983    1.12514    0.411137
-0.202982    -0.42043    0.345692
1.09548    0.313392    0.193667
1.12988    -0.192442    1.0954
0.170986    0.865364    -0.699805
-1.42401    -0.315634    -0.896724
-1.43642    -0.737928    -1.06069
-0.0228921    -0.209982    0.664758
-0.764872    0.0888143    -0.883045
-0.362167    -0.393336    -0.852506
-0.227273    -1.44196    -0.896942
-0.318725    -1.04662    -1.34901
0.820292    0.157201    0.0194909
0.0730552    0.541238    -1.26849
-0.264517    -1.40848    -1.27882
-0.654511    -1.04987    -0.571948
0.975998    -0.452438    -0.612919
0.203682    -0.918834    -0.329685
-0.131635    -1.12197    0.101713
0.42594    -0.728427    -1.149
-1.0379    0.220672    -0.104952
-0.0668408    -0.386889    -1.61801
2.5279    0.440615    0.63783
2.5181    0.445031    -0.873194
1.38205    2.30575    -0.319686
1.4528    0.473666    -0.186703
0.690898    0.0286894    -1.43879
0.744621    -1.30722    -0.663319
1.20333    0.838075    1.58427
0.579579    0.0443534    -0.152927
0.440789    -2.06229    -0.699426
-0.777055    -0.996552    -1.55759
-0.5054    -0.0509672    -0.758885
0.376048    0.223963    -0.00225801
-0.155156    -0.599708    -0.469011
-0.0365222    0.132874    -0.27948
0.821001    0.239622    -0.680862
0.171579    0.270574    0.473927
-0.269427    -0.202706    0.180026
0.0260526    0.121259    0.765765
0.0771794    0.0714387    -0.611073
2.725    0.297344    -0.749837
0.898354    1.53958    1.93656
2.44205    1.24153    -0.846254
-0.505227    0.564924    0.141711
-0.0968517    -0.184014    1.20369
-0.973412    -0.266557    -0.284106
-0.361491    0.31169    -1.22862
0.110932    -0.471409    0.130108
0.0780376    0.521781    0.385092
-0.427309    1.72737    0.60409
-0.0315653    0.461261    -0.498687
-1.7935    -0.0529178    1.82614
-0.0571059    -0.890392    0.056892
0.199967    -0.0926633    0.786161
0.569667    0.689566    0.873722
0.500232    -0.0220853    -0.164507
-0.452777    -0.377545    1.8228
-2.18181    -1.01758    0.307273
-3.31223    -0.824831    0.201002
-0.0280041    -1.24735    0.631782
1.32094    -0.354463    -0.671416
-0.619008    -0.718078    0.236383
0.196359    -0.694098    -0.421484
-0.103207    0.0843485    0.0827264
-0.37959    -1.10751    0.285537
0.378134    -0.752031    -1.46044
-1.18064    -1.53809    -1.17439
0.930748    -1.85163    -0.841718
-0.0400596    -0.831657    -0.910492
0.123194    -0.507367    -0.382164
-0.540158    -0.0215576    0.283074
0.562179    -0.717604    -0.37323
-0.21661    -0.0545179    -0.464013
-0.550728    0.142281    2.11815
-0.635087    -0.902537    1.41698
-0.330124    -0.104102    1.39507
0.771149    -1.09351    0.39908
0.595754    0.608867    1.62286
0.0590227    1.25187    0.00558496
-0.183031    -0.1742    0.514304
-2.01872    0.672407    0.335111
-0.111582    -1.5626    -0.19029
-0.650979    -0.739276    -0.143294
1.29394    -1.88098    -0.107429
0.174195    -0.35807    0.707716
-0.405636    1.24136    0.892639
1.59785    1.95035    -1.73543
1.83451    1.61089    -0.513271
-0.47992    0.301413    -1.04743
0.397333    -1.01067    1.66847
-0.0228313    0.598902    1.51059
-0.318716    1.52865    -0.334211
0.681839    0.255619    0.0143599
0.559111    -1.6718    -0.302829
-0.0269061    -0.112003    -0.686734
-0.713313    -0.862164    1.22608
0.118477    -1.53201    -0.0617478
0.478395    -1.60407    -3.70602
0.0242845    -0.88797    0.449975
1.26045    -0.809677    -0.234422
0.370441    0.676415    -0.286853
-0.651539    -0.717366    -0.518503
-1.78669    -0.517264    -2.02654
-0.773738    -0.402878    -1.00911
0.43209    0.0415061    -0.0395245
-2.19438    -1.11733    0.717034
-1.38981    -1.59762    -0.401976
-2.95559    -0.966924    -1.30982
-1.43724    -2.14993    -0.0311464
-0.090299    0.652447    -0.124309
-0.251779    0.161938    0.0516932
-1.43345    0.540236    -0.590683
-1.05212    0.613899    0.739198
-0.445852    -0.391777    -0.764275
-0.845099    -0.994453    -1.66504
-0.597299    -0.969016    -1.11854
0.947052    -1.71299    -0.720523
-0.10773    1.05626    -0.266586
-0.0472564    -0.715027    -0.646154
0.487038    -1.29873    1.41582
-0.32754    -0.545354    1.50877
-1.20091    -1.31928    -0.389619
-1.02946    -0.665938    -1.2168
-0.841245    1.30534    1.0942
0.990358    1.80592    -0.815382
1.09295    1.48011    -0.626375
-0.00353028    -0.688462    -0.695744
0.649851    -1.83109    -0.418514
-1.21156    -1.45203    -0.488818
-1.5562    0.0514603    -0.983981
-0.368677    1.50306    2.42758
0.357271    -0.103838    1.77113
0.0552163    0.268223    0.277803
0.276118    0.0823877    -0.20212
-0.58576    0.459595    -0.536343
0.506109    -2.37276    -1.37195
0.283188    -3.4105    -0.843464
0.139586    -1.51373    -0.223564
-1.06097    -0.968275    0.561332
0.358137    -0.42962    0.0470934
0.767879    0.611695    0.121281
-1.76109    0.773239    0.836247
0.434106    0.33158    0.687123
-3.08417    1.01338    1.07657
-1.11725    -0.998844    -0.503405
-0.116094    0.290999    0.190985
1.22023    0.567582    0.730597
0.753713    -0.999554    -0.72238
0.319909    0.508101    -0.780958
0.496818    -0.290744    0.302413
0.299383    0.453406    -0.00958063
0.11552    -0.223412    0.825379
-0.160201    -0.60551    0.641579
-1.21056    -0.142624    -1.96009
0.0820722    -0.867033    -2.29234
-0.0941943    -0.144825    0.260387
0.0211559    0.0883207    -0.387569
-0.902039    1.10227    0.599746
0.266428    0.179402    -0.306608
0.189711    0.608745    -0.0107148
-0.382157    -0.923507    0.591689
-0.181512    0.386663    0.00915388
-0.0533687    0.153956    0.388056
-0.373093    0.442664    -0.482237
0.948831    -0.435366    0.863176
0.287767    0.0332786    -0.932432
0.053614    -0.0926317    -0.615924
0.787951    -0.729911    -0.425168
-1.03542    -0.500207    0.637673
1.49646    0.502712    -1.14566
-0.0347313    -0.0654458    0.565404
0.988055    -0.247533    -1.64345
0.17857    0.635347    -1.39161
-0.238811    0.285525    -0.533146
-0.812458    1.54029    -0.67127
0.655974    1.26896    1.74589
1.50016    0.78059    1.94193
1.86434    2.69895    1.11772
2.63432    1.54048    1.32232
-0.0774435    0.515186    1.43495
0.422577    0.634337    -0.63748
-0.349701    -0.229509    0.255985
0.375345    -0.134988    -0.42672
-0.909888    -0.905396    -0.971475
1.00313    -0.588318    0.896935
2.12124    -0.594875    0.278123
0.146111    1.00608    -0.299937
-0.981837    -0.129751    -0.34655
0.371078    1.02699    -0.532543
1.95422    -0.0318618    1.56791
0.550631    -0.093375    1.97713
1.01601    -0.715706    0.466278
1.82391    -0.13584    -0.528714
2.26159    -1.93183    0.591692
-0.117721    -0.722673    1.14979
0.573468    0.178467    -1.91032
1.30058    1.64033    -0.0183061
0.612714    0.47628    -1.12495
-0.0361261    0.622801    -0.262124
-0.208399    0.999319    -0.450517
-1.71612    -0.0538255    1.40577
-0.316724    0.759977    -0.383379
-1.83975    -0.361476    -0.552488
-0.443188    0.0875245    -2.19611
-0.0581151    0.468082    -0.807923
0.305492    -0.705381    1.02304
0.440332    0.235769    -0.290095
-0.705741    0.354128    -0.255633
0.254348    -1.31686    -0.123997
-0.118073    -1.78751    -0.85899
-0.0962999    -1.2279    0.720895
-0.130038    0.716855    0.900858
0.676533    0.968962    1.28923
-0.125615    0.65248    0.117522
-0.796626    -0.226054    0.679004
0.129787    -0.192445    0.46913
-1.2588    0.937843    0.357357
1.42519    -0.344853    -0.576885
0.0110759    0.0580761    -0.0257252
0.235148    -1.89881    0.131452
1.28054    0.0784975    0.708811
0.481256    0.171111    -1.17943
-0.89548    -1.37255    0.656023
-0.482255    0.0706503    0.0532822
-0.0822066    -0.88072    -0.505186
-0.484885    -0.828832    -0.945044
-0.0139996    0.0252631    -0.439745
0.247865    -1.52545    -0.25218
0.682414    0.0564855    0.023577
0.467331    -0.284068    -0.784704
0.4438    0.321883    0.194931
-0.63921    -0.0202387    0.0795938
0.149304    -0.952454    -0.828432
1.3344    0.990003    0.469747
0.31678    -0.289816    0.106367
-0.64717    0.725062    -0.0291399
-0.473152    0.408588    -0.0207256
0.921103    0.500451    -0.897015
0.160667    -0.0301284    -1.75341
-0.334811    -0.466707    0.910081
-1.09576    -0.499109    0.776812
-1.54516    2.06901    1.59545
-1.44251    0.896841    1.30013
-0.255564    -1.06307    1.58676
0.112518    1.26241    1.91326
-0.917809    -0.515723    1.72464
-0.102125    0.0426309    0.453468
1.06825    1.16221    0.833444
1.43918    0.14658    -0.336298
1.33893    -0.136463    -1.06672
0.154042    -0.377929    -1.70276
-1.00099    -2.27121    0.0145895
0.0269929    -0.224111    -0.305626
-0.291349    0.0415513    0.0933153
0.208225    0.490796    1.16819
-0.625479    -0.136678    0.434605
-0.375269    -1.5229    0.526004
-0.350562    0.267134    -1.70532
-2.52942    -0.589398    -1.07836
-0.406644    -2.51689    0.605689
0.0256757    -1.0514    -0.930357
1.05519    1.23367    -0.243463
-0.623668    -0.211869    -0.559461
-0.680774    0.107774    1.71515
1.8007    -0.842612    -0.444594
0.601249    -0.893265    -0.274918
-0.44679    2.24689    1.13469
-0.209359    0.357994    1.50178
-0.609215    0.671789    0.505294
0.913444    0.290237    0.470148
-0.198503    0.0267808    0.935883
-0.0217951    0.877338    0.449742
-0.360972    1.30726    -0.184498
0.0416729    0.0455363    2.07359
-0.906811    -0.0959993    -0.0422988
-0.978222    0.946691    -0.224199
-0.231033    -0.0299841    1.45767
1.18245    0.118306    -0.946122
0.450143    -0.882216    0.478148
-0.780669    -1.36127    1.12898
0.701911    -1.49757    0.225149
-0.191818    -0.471328    0.403291
-1.26752    0.767429    0.0452511
0.498074    -0.320911    -0.0194905
0.311402    0.493539    -0.306377
0.350191    -0.309287    0.762205
-0.111944    -0.491046    -0.216102
0.25804    -0.392359    1.12677
0.112574    -1.91303    -1.45774
0.375876    -2.51622    -0.955984
-1.0886    -1.70971    -0.893838
-0.897868    0.479813    -1.45552
-1.79358    -0.382666    0.167752
1.11414    -0.192782    -1.53021
-0.739679    -0.0402452    0.0874588
0.185764    0.735445    0.190181
-0.513533    0.575569    -0.263352
0.265181    -0.673597    1.51367
-1.08654    -0.352391    -0.0682846
0.449405    -0.384552    1.45208
-1.64946    -1.69326    1.27929
-1.47622    0.606313    -0.875897
0.203639    0.725104    -0.824526
0.149988    0.817068    -0.737419
-0.789905    0.0759039    0.093443
-0.465106    1.30816    -0.86221
0.218078    -0.489753    0.354591
0.265283    -0.41395    0.472607
2.10332    -0.0708937    0.299798
1.20172    -0.608902    -0.959234
-0.104758    -0.581213    -0.746343
-0.892807    0.834201    -0.0559095
0.248596    -0.613762    -0.0241278
1.56804    -3.04663    -0.743442
-0.895156    -0.0406539    1.03024
0.544282    -0.217529    0.279212
-0.0902621    0.148977    0.539935
-0.376312    0.588283    0.178531
-0.38383    -0.0016397    -0.78866
0.168275    0.0913135    -0.481865
-2.01564    -1.04658    -0.0697149
-0.845981    -0.654577    -0.743828
0.132157    -0.293936    0.363017
-0.192541    -0.498704    0.126944
-1.54179    -1.11541    1.11221
-0.402368    -1.50985    0.358854
-0.450716    -0.446429    0.283884
-0.23355    0.962754    0.331908
0.262636    -0.0263826    -0.266638
-0.27864    -0.490866    -0.185871
0.0983148    -0.140475    0.131239
0.0983148    -0.140475    0.131239
-0.407264    -0.0695968    0.0893342
-1.40888    0.180731    -1.67166
-2.44534    0.77443    0.998711
-0.600654    -0.842355    2.69929
-1.10831    -0.54717    0.812801
-0.176326    0.316183    0.0768557
0.601604    0.234932    -0.421582
0.251411    0.0992569    0.955602
-0.287702    0.0302246    0.700084
1.01086    -0.390676    1.42129
1.32477    0.936091    1.87355
1.24763    1.09693    -1.30675
-0.776499    0.434595    0.658248
-0.0773632    -0.369238    2.27982
-1.6552    0.0804092    2.71918
-0.674527    0.216543    1.40851
-1.71471    0.0546553    -0.11856
0.228945    1.53289    -0.253336
0.793111    0.0407003    0.687414
-0.579657    -0.356263    1.55507
-0.755029    0.885856    0.844014
-0.477623    0.294213    0.849818
1.20501    -0.468181    0.314154
-0.82835    0.702339    -0.146272
-0.542135    1.46133    1.63057
0.179408    1.74843    -0.730655
0.351154    0.846235    1.41481
-0.240691    1.01698    0.300802
-0.617132    0.271871    -0.90522
0.017436    -0.277726    0.395509
-0.824272    -0.51717    -0.0890138
0.277662    -0.0879635    0.23333
-0.428249    1.55262    -0.31101
0.258343    0.20252    0.483123
0.405641    -0.210557    -0.863029
-0.415097    -0.142915    -0.309753
-0.090859    -0.909451    -2.46813
0.613607    0.0236083    -0.0526311
0.0664673    -0.40534    0.53553
0.55632    0.19668    -0.450467
1.72146    0.258348    0.333065
0.946494    -0.317215    0.0312564
1.02491    0.164528    -1.37527
1.25448    1.59597    0.391627
0.250888    0.530231    -0.00903965
-0.382351    -0.775357    -0.574309
0.460864    -0.841095    -0.398909
0.240038    0.296131    -0.536776
-0.607987    -2.16587    -0.216351
-0.306419    -0.0541817    -0.18879
-0.306419    -0.0541817    -0.18879
-0.845468    -0.842688    -0.383524
0.00720669    -0.517215    0.0158895
0.780798    0.736251    1.36122
0.450118    0.594793    0.34614
0.875837    -0.676869    0.285456
0.700268    -0.34694    -0.225355
0.113039    -0.869743    0.118543
1.82335    -0.350286    0.380548
2.29964    0.714534    -0.555685
0.403347    -0.652583    -0.282148
0.00299497    -0.230787    -0.176044
1.03241    0.711566    2.41439
0.55459    -0.309591    0.776938
-0.266193    -0.896319    1.22211
-0.203593    -1.81581    1.21551
-0.852882    -1.05915    -0.0904199
-0.663957    -1.10341    0.602242
-2.35869    0.191968    -0.809773
-1.72585    0.177869    0.618204
0.491967    -1.01438    0.279884
-0.205509    1.03848    -0.75411
0.480369    0.544426    -0.403718
-0.342389    -0.165778    -0.594483
0.49862    0.958095    0.332805
1.13663    0.531627    0.479624
0.908146    0.0684279    0.180228
-0.94964    1.17701    0.98153
-2.82719    2.93208    -0.348406
-1.93702    1.07982    1.3296
-0.455288    2.71232    -0.167278
-0.892708    1.61218    -0.290887
-1.20506    0.215629    2.61995
0.114894    -0.206594    1.22339
0.738764    0.0957497    0.552697
0.0607438    -0.449584    0.502752
-0.202591    0.71519    0.382221
-0.491078    0.995527    -0.586579
0.775497    0.0995643    -1.98837
0.411511    1.55052    0.151274
-1.69524    -0.485521    -3.24542
-2.66348    0.272495    -0.21957
-0.532254    0.181229    -0.673219
-1.27956    -1.04883    0.318699
0.818069    -1.02584    0.966188
0.945675    -0.0300885    -0.217123
0.193247    -0.858385    0.375292
-1.03602    0.235991    -0.918904
-0.696813    0.498002    -0.100934
-0.561152    -1.04776    1.47906
0.0446907    -0.626711    0.89428
-0.0061107    0.197534    -0.200164
2.72434    2.06943    -1.333
0.386661    2.10729    0.839828
-0.102363    -1.80628    -1.38716
0.504644    -0.506215    0.714784
0.588981    0.0401413    0.248963
0.559279    0.00726331    0.242407
-0.518111    1.2266    -2.74757
-0.322391    -0.047122    -1.33097
0.148129    0.384372    -0.697585
0.26795    -0.28082    -0.254379
0.747433    -0.71347    -1.13671
0.0712074    -0.875836    1.28635
-0.242228    -0.584179    -0.172338
0.439842    0.152151    0.336991
-0.129249    0.616521    -0.295963
0.18356    -0.654262    -1.77828
-0.613548    -0.158029    0.0835768
0.126707    0.954528    -0.18273
-0.223885    1.66267    0.128658
0.672842    0.230443    -0.219328
1.09178    -1.23742    0.471515
-1.82448    -0.590126    -1.61322
-2.32651    -1.08616    -0.245098
-2.21116    0.295769    0.045196
-0.934473    -0.643438    1.31898
-0.273501    -0.424185    0.916079
1.69753    0.902383    0.136023
0.825213    -0.448531    -0.341316
1.88077    0.0988479    -2.43996
0.846304    0.403892    -0.816355
-0.0668254    0.978951    -1.50644
0.885069    1.58483    -1.33794
1.24423    -0.584781    -1.79077
-0.130532    -1.91906    -0.35466
-0.96808    0.717488    1.08786
-0.283593    0.401784    -0.660074
0.21406    0.170625    0.805039
2.31695    0.854533    0.673711
0.468397    0.783399    1.42813
-1.64859    -0.655273    1.04078
-1.56818    0.807553    -0.0776176
-0.343602    1.31747    1.21973
-0.824919    -0.0377753    -0.49741
0.884889    0.350546    -0.175031
0.813146    0.298654    -0.194839
0.031577    1.37112    1.37591
1.92448    1.80962    -0.49247
2.03954    0.714936    -2.06432
-0.22568    -1.11615    -0.984555
-1.02479    -1.70542    -1.18661
-0.655528    -0.438715    -1.04963
-0.170391    -1.4391    -0.358169
1.11402    0.71834    -0.074783
0.218498    1.34268    -1.01807
1.6678    1.19845    -1.69403
2.29391    0.509218    -1.08543
-0.722853    -0.0360037    -0.354928
1.62226    -0.182531    -0.378109
2.0935    -1.51321    2.91611
1.54538    -1.16132    -0.318328
0.152926    -0.893549    1.18639
-0.73427    0.978544    0.264661
-0.809732    0.24904    0.876089
0.909692    -0.586569    0.217127
-0.693423    0.269949    0.897488
-0.193509    1.68653    -0.427358
-1.95131    1.25646    -1.87226
2.37852    -0.995715    0.165227
0.802096    -0.895975    -0.536745
1.04478    -3.39091    0.253389
0.171931    -0.235663    1.30148
1.81311    -1.0003    0.496805
1.44724    -0.940537    1.21211
1.38818    0.725375    -0.215724
0.0104009    0.154823    0.568371
1.80954    -0.422534    1.11223
-0.398916    -0.506345    0.0273371
-1.71995    -0.0584173    0.758428
0.813941    -0.571758    0.299738
0.210123    -1.91889    1.88071
-1.94269    0.163247    -0.611042
0.2129    -0.491548    0.219227
-0.545019    0.109055    -0.655586
0.389817    0.264905    -0.184521
0.365132    0.44908    -0.159589
0.213837    0.627711    -0.434015
0.0960765    0.763744    0.0845093
0.916812    0.0687993    0.432117
-0.144822    -0.683066    -0.406626
0.423111    -0.559596    0.132575
0.425884    -1.15247    1.05347
0.00333723    -0.975406    -0.653074
-0.33663    -0.176197    0.288694
0.691302    -0.397847    -0.846971
0.170946    0.212937    -1.17481
-0.736381    -0.140431    0.127679
-1.5332    -0.065537    -0.4683
-0.672275    0.935767    0.634724
1.09597    1.11409    0.31256
0.668402    1.50333    -0.819684
-0.206869    0.501041    -0.025634
-0.359103    1.0088    0.28835
-0.923692    0.889627    1.91315
-0.585766    -0.308063    0.0654083
-0.067212    -0.0735688    0.877112
0.174384    -0.333386    0.536917
-0.00204258    -0.173702    0.43884
0.28849    -0.500336    -0.432458
-0.404085    0.545579    -0.955294
-0.940355    2.19378    0.731657
0.411614    0.852989    -1.3767
0.450839    -0.0769634    -0.593043
-0.734494    0.11628    -0.173136
-0.204006    -0.85313    -0.374528
0.0387762    0.0428834    0.120816
0.155797    0.227675    0.128129
-0.0586845    0.221785    -0.029992
-0.546813    0.674849    0.991284
-0.944136    -0.171385    -0.352993
1.54416    0.262325    -0.372101
0.881824    0.249436    0.901567
0.18173    0.393979    1.25465
-0.707248    0.10724    0.258662
-1.32559    0.932233    -0.959262
-0.503911    2.22816    -2.03445
0.344885    -0.390557    -0.327469
-0.514217    0.314967    0.128984
0.239636    -0.589058    -0.94883
-0.112744    0.0543951    -0.398586
-1.77709    0.305385    -0.163903
-0.132428    0.295009    -0.412127
0.232284    1.58326    -0.941728
-0.457181    -0.687081    1.29128
0.145924    0.0289881    2.33233
0.0729398    -0.131605    0.133238
0.767965    -0.420179    1.3849
0.67424    -0.545477    0.0554881
-0.119102    -0.285461    0.0962763
-0.468388    0.353664    0.354274
-1.47759    0.245099    1.89309
-1.46551    -1.74083    1.39252
0.292939    1.87428    -1.62966
0.513903    0.708564    -1.49535
0.708779    0.480218    -0.794341
-0.197018    0.471075    1.99374
-0.639331    0.000401934    -0.256937
0.177135    0.0824745    -0.0412745
-0.0693261    0.89818    -0.0227178
-0.153724    0.0616106    0.313635
0.302082    1.13425    1.54828
-0.560132    -0.368721    -0.21416
-0.720396    -0.392226    -0.860414
0.0212612    0.292044    -0.917018
-0.27253    0.345261    0.706859
0.292105    0.00685777    0.383258
-0.866738    -1.93166    -0.101254
1.16923    -3.39086    1.94875
0.51307    0.550011    0.494866
-0.777097    0.272755    -0.0345391
0.752989    -0.74328    0.442179
0.160901    -0.690427    0.247732
-1.25005    -0.184444    0.583758
-0.611574    0.0707759    1.11637
-1.63645    -0.95576    1.49044
0.85637    0.242629    0.479172
-0.402194    -0.999803    -0.100562
-0.817375    0.423076    -0.904349
0.479563    2.66725    -0.831395
-0.895536    0.301427    -0.934454
-1.60133    0.345701    -0.853256
-1.9503    0.444307    0.281588
-2.14274    -0.290278    -0.0503901
-0.754229    -0.587357    0.706037
-0.166803    0.19018    -0.0332994
-0.807314    0.275432    -0.796828
-0.0376908    0.590721    0.352679
0.105422    -0.08004    -0.522074
-0.111236    0.855853    0.626998
-0.739689    0.212693    0.756436
0.491528    0.266836    -1.36802
0.539385    0.367195    0.499881
0.23803    -0.494172    0.72266
-0.248556    0.0284591    -0.380829
0.17769    0.712325    0.517536
0.0473541    -1.34009    -0.0746072
-1.16355    0.491411    -0.74909
-0.758868    -0.868469    0.0053688
-1.2879    -1.52769    -0.0593245
-1.27394    -0.902382    0.001954
-1.25482    -1.44885    -1.67815
-1.17362    2.3382    0.38173
0.548293    0.0545116    -0.213699
0.566428    0.649743    1.03168
-0.179841    0.85235    0.162855
0.119551    -0.975088    1.91419
-0.328016    1.10992    0.684326
-0.446394    0.819414    0.173874
0.485288    -0.107143    -2.14598
1.07753    -2.38925    0.809159
-1.10639    -0.571768    1.98632
-1.06191    0.795795    2.02852
-0.741863    -0.2428    0.00534404
-0.710723    -2.6662    -0.952047
-0.658705    -0.114172    -1.13114
-0.59741    -1.21086    0.578757
0.465515    -0.797729    -0.638063
-0.923345    1.80017    1.18687
0.508754    0.61786    0.171582
0.033304    -0.796189    0.773685
0.495586    0.725096    -0.221727
0.0283044    0.646376    -0.859937
0.190686    0.513403    -0.754735
-1.24862    1.53557    0.644147
0.794326    1.6723    -0.657696
1.03883    0.944063    -0.804343
0.00259985    0.972715    -0.22153
0.669563    -0.670126    0.0171647
0.251531    0.8004    -0.0487902
1.32669    -0.73003    -1.15843
2.62862    -0.680592    1.48941
1.19411    1.89221    -0.793419
-1.02839    1.25349    1.11126
0.36921    0.562305    -0.501906
-0.276376    -1.10512    1.2173
-0.190711    0.089857    0.861892
0.38405    0.201707    0.71096
0.851641    0.592356    0.508604
0.466027    -0.382065    0.107144
0.064971    0.468188    -0.839293
0.361641    0.287587    -0.837479
0.0677265    1.60595    -0.373631
-0.210341    1.34486    -2.92731
0.757803    0.61901    -3.6062
-0.735853    1.65748    -0.219012
-0.180767    2.42213    -0.377976
0.184668    0.0990442    0.646804
0.414931    -0.385831    0.328351
-0.957544    0.906345    0.643703
1.98461    -0.917248    1.06857
2.21477    -0.0728748    0.468439
0.42951    -0.554421    0.421788
2.68827    -0.0805124    0.818725
0.892118    0.696519    -0.322301
0.21314    0.179629    0.106917
0.153738    0.763836    -0.141823
-0.174789    0.869416    0.860564
1.07972    -0.337252    1.50411
0.527014    -0.181833    0.613665
0.508874    -0.233003    1.03825
0.62591    1.29992    -0.24051
0.175828    -0.249651    0.228769
-0.409662    0.665622    -0.532874
0.107683    -1.1971    -0.309985
-1.05852    -1.68049    0.302944
-0.013543    -1.88621    0.530222
0.0531688    -1.79802    -0.354548
1.28883    0.523519    -2.02332
0.0699574    0.205843    -4.11643
-0.375703    0.837033    -3.15575
-1.23687    -1.04127    -1.82541
-0.821313    -0.301942    -1.23877
0.405209    0.437904    0.113746
0.163305    0.546419    -0.528316
0.0813047    0.0870283    0.212369
-0.741143    0.0551694    -0.843951
-0.181352    -2.52848    0.397801
-0.421627    -1.61898    -0.0118161
0.649911    -1.00546    -0.681322
-1.70757    -0.422516    -0.309353
1.63546    0.145093    -0.287574
0.857596    0.0464443    -0.071991
1.07436    1.54655    -0.0620393
0.216834    0.286657    1.16188
0.568605    -0.0899393    2.33275
0.488968    -0.0510111    0.394688
0.999152    -0.381656    0.0981757
-0.0129806    -2.05073    -0.305339
3.08435    -2.46274    -0.215438
0.447273    -0.331904    -1.30053
1.20791    1.69334    1.25787
0.322604    -0.0535782    0.387416
1.01217    0.045274    -0.0173407
0.84117    0.317821    0.694978
-0.717569    -0.37608    0.326553
-1.01534    -0.162196    -0.484342
0.135159    1.0502    1.11922
-0.53366    0.138486    -0.785368
0.830349    -0.44765    0.566861
-0.707336    -0.931558    -0.885546
-0.902764    -1.5208    -2.57388
-1.52292    1.47836    -3.43144
2.72963    1.00931    -3.80541
0.208515    0.268753    -1.49913
-0.685724    0.169334    -0.0990653
0.480277    0.189442    -0.446443
0.140733    0.496885    -0.378047
0.12372    -1.13215    0.0406095
-0.654384    1.20269    -0.550713
0.42401    0.447914    -0.765966
0.629272    1.56511    -1.87307
-0.0305364    -0.342434    0.186126
-0.160571    -0.277446    0.0820969
-0.245379    0.138198    -0.148498
0.984842    -0.141631    0.134478
0.514364    -0.236261    -0.628867
2.38119    1.58846    -0.0394294
0.890668    -0.0605397    0.243569
0.534897    0.0968105    0.0701068
-0.449093    1.28487    0.114605
-1.51141    0.206849    -1.77965
-1.70949    -0.258638    0.504958
-0.319807    -0.411184    -0.133357
0.669335    -0.805346    0.532077
0.269944    -0.69582    0.291027
-0.898926    -0.37476    0.0908823
0.236317    1.09879    0.313848
0.669183    -1.14386    0.22129
0.119793    -0.55099    0.430468
-0.28378    0.235422    -0.253039
0.0753712    1.34456    0.937364
1.52877    1.3232    -0.958609
2.15849    0.725313    0.587733
0.704561    0.334375    -0.289454
-0.726954    0.821501    0.743776
-0.458805    1.31932    -0.541896
-1.85436    0.786554    0.407166
-1.06555    -0.41473    0.264333
0.224393    -0.439045    0.452226
1.1886    0.552002    0.381026
-0.124284    0.100407    0.745589
0.821699    -0.876073    -0.284183
-0.279669    -0.176379    -0.840878
0.431536    0.0334451    0.0941845
-0.262307    -2.52575    0.855672
-1.45378    -2.45817    1.07528
0.256568    -0.829325    0.269606
0.165795    -0.727005    -1.54185
-1.18153    0.306278    -0.640953
0.518662    0.990511    -1.34402
0.294339    1.82242    -0.730632
0.779619    2.1996    0.017932
-0.397696    -0.857627    -0.621456
-0.792123    -1.45876    -0.141185
0.304617    -0.379815    -0.154438
1.00917    -0.047142    0.586256
-0.856666    -0.690813    -0.430018
0.235155    1.6689    -0.692189
-0.772496    0.375094    -0.409323
-0.893983    -0.397198    1.23736
-2.15464    -0.86637    -0.0314974
-2.07352    -2.7004    1.26651
-2.39953    -1.03056    2.82996
-3.25219    -1.07528    2.02856
-2.80986    -1.70447    2.85257
-2.6823    -2.1519    4.21245
-1.0273    -4.12454    3.58156
-0.386185    -2.18938    2.85326
0.776501    0.284525    0.694685
-0.00680849    0.387854    -0.410621
-0.00680849    0.387854    -0.410621
-0.912702    0.670776    0.209294
-0.119236    -0.929088    0.970525
1.59487    -0.775297    -0.149157
-0.458216    -0.43086    0.903905
-0.248628    0.690081    0.474865
0.580941    1.08763    1.39342
0.729892    -1.16182    -0.999695
-0.440431    0.726297    -1.67487
0.392389    -0.51899    0.0670191
-0.275731    0.105982    0.91458
-0.0826814    -0.0103306    0.236883
-0.688157    0.859965    -1.42554
1.54522    -0.933469    -0.566622
0.0844312    -0.288295    1.9865
1.00883    2.07044    -0.701876
3.1977    0.925071    -1.7853
0.758302    -0.0635665    -4.05897
1.44452    -0.756356    -6.14973
-0.105699    0.251028    -4.98973
-0.62281    2.47044    -3.17475
0.166776    2.03066    -2.74368
0.148645    3.73963    -1.454
0.244087    2.26015    -0.186427
0.676417    1.94267    0.858425
-0.188737    -0.87906    0.494161
-0.672869    -0.716913    0.214292
-1.30887    0.232884    -0.324015
-0.827209    0.902972    0.50435
-0.73744    1.09427    0.342173
-0.801023    0.0479097    -0.165294
0.517349    0.169451    -0.899016
0.947083    -0.746113    0.817127
-0.237424    -0.349743    -0.159397
-0.267024    -0.866644    -0.167804
0.190116    -0.300976    1.42173
0.0669714    -0.159098    0.433945
-0.516691    0.137006    -0.776249
0.503767    -0.0626461    -1.1934
0.540598    -0.814128    1.28489
2.19565    2.12957    -1.2865
1.99726    0.244933    -0.580458
1.3568    -0.130571    -1.39152
0.716119    -0.391793    -1.48163
0.0992155    -0.643303    -1.57081
0.124807    -1.44207    0.834444
-0.782643    -1.39621    -0.140645
0.337683    -0.633524    0.294864
-0.543874    -1.02903    -0.250892
0.870015    0.0626699    0.598129
1.11785    -1.15436    -0.496647
0.238856    -0.421591    -0.649759
-0.181419    0.0341944    -0.379308
-0.312509    -1.09335    0.384275
-0.236062    -0.152547    0.324428
0.0363485    -0.555573    0.409586
-0.053406    -0.517332    -0.862639
2.85775    -0.569887    1.89369
2.21358    -1.42204    1.52112
0.817483    -0.273993    1.41603
0.724543    -1.74574    -0.0373293
1.28778    -2.04739    -0.575658
-2.04515    -0.953581    -1.62362
-1.52644    0.283285    -0.968552
-0.992379    1.94285    -0.439121
0.181549    1.15383    -0.933803
-1.31661    0.220595    0.625752
-0.102336    0.44583    -1.67044
-0.85786    0.304785    0.569906
-0.160711    0.192448    0.0190213
0.585603    -0.346477    0.186606
-1.20511    0.478655    -0.170608
-1.66228    -1.34008    0.9293
-1.68981    -0.53999    -0.551649
-1.32066    0.939258    0.290489
-0.0904785    0.522175    -0.0912208
0.991925    -0.305717    0.0441044
0.345318    -0.139778    -0.446784
0.162081    -0.0759786    -0.0507999
0.242738    -0.34399    0.201075
1.85891    -0.388067    -1.48002
2.21904    -0.995839    -1.08371
1.23158    0.391029    -1.52413
-0.11232    0.873585    -2.24222
0.85518    -0.347109    0.800727
1.07801    0.651264    -1.06535
0.469808    0.954372    0.0626678
0.653091    1.2662    0.157747
-1.29778    -0.0995574    -1.5914
1.79446    -0.0313235    0.0683015
1.30305    0.805394    0.147191
-0.733463    1.36634    -0.877556
-0.750357    0.727532    -0.0865032
0.94531    1.69679    2.14885
1.94529    1.44822    0.211428
0.267691    0.282412    1.51929
-2.05474    1.23247    0.363864
-1.5643    1.88764    0.353344
-0.178563    1.07567    0.864554
-1.12135    -1.34116    -1.55295
1.93295    -1.07426    -3.0688
3.15399    1.37601    -3.09534
1.83692    3.07017    -2.22332
-0.577067    3.72878    -1.78086
-1.08198    3.79891    -1.7459
-2.49445    3.65372    -1.70389
-2.40565    0.133584    1.44731
0.362797    0.195346    -0.132879
0.861403    1.38384    0.128763
0.983222    -0.835458    0.0369126
0.126848    -0.734031    0.0555952
0.459216    -0.445777    0.22098
-0.959837    0.243455    -0.920934
0.0906004    0.115123    0.915658
0.380545    -0.44192    -1.06023
0.51415    -0.770275    -1.02759
1.05553    -0.0255009    -1.64863
0.190503    0.455482    -1.0861
0.908282    -0.612218    0.616489
0.877767    -0.492022    2.06209
-0.525805    -0.44797    0.431831
-1.97855    0.424371    -2.03107
-0.900852    1.66253    -1.63851
-2.05863    0.967748    -1.5684
0.0888765    -0.455115    -0.566634
2.01799    -0.788508    -1.73831
1.35903    -1.60374    -2.63972
2.5807    -2.37792    -2.18588
2.20622    -1.743    -1.6725
-0.566171    -0.876111    -0.495877
0.672181    0.557833    0.713625
0.765635    1.03956    1.64579
-1.4715    0.637554    0.549608
1.14232    -0.23243    -0.433005
0.507122    -0.439304    -0.27482
-0.51049    0.513392    -1.15016
-0.460884    0.992814    -1.4088
0.546748    -1.14644    0.588886
1.59147    -1.41369    1.74418
-0.236747    0.300046    0.190308
-0.236747    0.300046    0.190308
-1.00007    -0.281604    0.132858
-0.0477403    -0.458879    0.658717
-0.0477403    -0.458879    0.658717
-0.0964583    -0.322092    0.626188
-1.55529    0.0803727    0.0625927
-0.961423    -0.0513277    -0.05577
-1.14304    -0.205034    -0.13728
0.173705    -1.43821    -0.611418
2.33767    -0.920204    -2.54779
2.97057    -1.5603    -1.60592
1.92669    -1.64752    -2.30695
-0.213709    -1.00819    0.00464658
-0.90672    1.23871    0.563133
-1.55737    1.10962    0.00326215
1.20367    0.160342    -0.759877
-0.360692    0.453212    0.0449684
-1.40246    -0.305648    -0.638594
-0.20146    -0.494569    0.607106
1.7193    0.0621756    -0.548798
-0.353826    0.0805723    0.457189
-2.54801    -0.467687    0.05818
-0.664021    -0.712521    0.462497
-0.379287    0.68541    -1.21064
-1.05602    1.14778    0.301914
-0.925037    0.298562    0.025247
0.571037    -0.0168496    0.50689
0.0588104    0.469479    1.07471
-0.180756    0.228275    0.326515
-0.405742    -0.0604466    0.576223
-0.207842    1.17174    -0.130137
-2.65252    1.14823    1.21679
-2.13512    0.724387    -0.725658
0.442089    0.903463    0.984222
2.17548    3.19628    1.14393
3.67392    1.92812    -1.72003
0.741975    -0.121091    -2.14308
-0.151855    -0.499382    1.81002
0.350125    0.523044    0.427573
0.318636    -0.511868    0.546591
-2.12697    -2.21002    0.49642
-1.36832    -1.8211    2.85895
-1.75967    -3.89034    1.59501
-2.77832    -0.360133    0.33518
1.04196    -1.28307    -0.632689
-0.901832    -0.0189791    -0.0371449
-0.00944659    -0.746335    0.610554
0.0223413    0.742388    0.231655
0.0220889    0.932019    -0.0042024
0.163177    -0.927672    -0.342426
2.5869    1.58656    2.0018
2.20542    0.996113    2.6982
0.499235    -0.169259    1.42308
1.28171    1.72605    0.364513
1.08262    0.57493    0.673865
1.09065    0.598114    0.76063
-0.233145    0.507877    -0.98633
-0.0582131    -0.574677    -0.381637
0.104622    -0.926034    -0.951552
-2.36989    -1.36751    -0.589506
-2.08505    -0.835343    2.2248
-1.98444    1.85171    1.5782
-1.97941    -0.367094    -0.867315
1.06655    -0.583115    -0.0108339
-0.475362    -0.208431    0.765187
-1.4335    0.44969    -0.169406
1.35303    0.81388    -1.99163
-1.29989    1.11783    0.980931
0.399504    -0.642983    0.685666
-0.47632    -0.602216    0.217685
2.111    -0.23546    -0.150856
0.390925    1.05526    0.0466364
-0.208676    0.0696665    0.796547
0.454766    0.0522888    -0.16089
0.170027    0.0945059    0.435682
-0.922303    0.390372    -0.0855517
0.407603    0.497046    -0.617772
-0.837648    -0.704083    -0.988147
-0.712263    -1.44821    -0.29829
-1.81497    -1.29189    -1.11512
-0.881711    -0.319767    0.272299
0.57935    -1.32286    1.29503
3.10597    -2.29983    -0.451142
-0.0625455    -0.132494    -0.434825
0.0845366    0.694136    -0.262816
-0.824973    0.155089    0.613547
-0.673837    0.583069    0.0696659
0.688416    0.930344    1.36356
0.452538    1.08348    -1.22813
-1.75254    -0.109032    2.28089
-1.57493    1.23225    0.516751
-0.478668    0.27134    0.834828
-0.073622    -0.089961    -0.150269
0.78075    0.498853    1.92516
1.57849    -0.620893    2.9715
0.3479    1.10135    -1.08977
1.86596    -2.13801    -1.43357
1.06401    -1.12162    -1.1537
0.226455    0.438429    -0.224431
0.221587    -0.167929    -0.0505052
0.853972    -0.393587    -0.357338
0.0822813    0.643532    0.175845
-0.265698    -1.29502    -0.41885
-0.34378    -1.39005    -2.06019
-1.39811    1.34755    -3.4205
-1.8385    0.166474    -2.09931
-0.00865849    -0.228751    -1.09351
-1.03461    1.04114    -0.831083
0.582218    0.460862    0.0331233
-0.608235    0.710894    -1.16573
-0.547583    1.10854    -0.503397
-0.811665    1.01763    0.725206
0.169557    -0.203314    -0.367585
0.485409    -1.42636    0.705164
0.878155    -0.335468    -0.249407
0.171779    -0.391705    -0.17058
-0.200202    -0.709771    0.635094
0.325164    0.38662    -0.0716882
1.2343    -0.903872    -0.400266
1.68693    -0.875139    0.154595
0.849155    -1.29563    0.802514
0.625098    -2.17613    -0.0654768
-0.145915    -0.454958    -0.142752
0.17457    0.433512    0.300956
0.206857    0.719097    0.0543201
-1.13379    0.737813    0.622347
-0.200678    0.540355    -0.356983
1.59039    -1.08411    -1.91278
0.182033    0.640811    1.94165
0.326206    -0.689305    2.12118
1.33783    0.139372    -0.13597
-1.34455    0.0662631    -0.736089
-1.10216    -0.152189    -2.981
-0.00334898    -0.567501    0.191608
-0.0166612    -0.23431    1.82723
-0.890684    -1.62829    0.85427
2.48443    0.660058    0.50397
1.19652    -0.04696    -1.34409
-0.00494027    -1.31667    -1.02447
-0.237292    0.555175    -0.673328
-0.763704    0.391061    -0.656467
-2.18991    -0.858862    -1.49962
-0.515627    0.321828    -1.08094
-0.0864975    0.241217    0.0424977
-0.788131    -0.939824    0.415431
-0.0885433    -0.330437    -1.02498
0.0724978    0.202596    0.434423
1.68029    0.158298    -0.776467
0.905438    1.0643    -0.101188
0.999256    -1.20735    0.324042
1.63932    0.400031    -0.100071
-0.567288    1.51363    -0.152667
-0.176085    1.05814    -0.0303433
0.206889    0.888452    -0.368043
1.54848    -0.00972192    0.330463
0.922939    0.505121    0.2399
-0.216055    -0.0756772    0.310906
-1.59308    0.87874    0.274321
0.431664    0.464709    -0.272733
1.30535    0.0502229    -0.267011
0.549816    1.5921    -1.62826
-0.343858    1.82913    -2.27562
-0.690844    0.246043    -2.21797
-0.869753    -0.230781    -0.0264824
-0.760677    -0.862644    -0.0881352
-0.148856    1.4515    1.18655
-0.903826    -0.046124    0.680404
-1.07053    0.108956    0.427603
0.0097447    0.726288    1.12293
0.438362    -0.075019    0.26414
0.385061    -1.09545    -0.201398
-1.14902    0.609153    -1.64057
-0.423975    0.20195    -0.49256
-0.387164    -0.132413    0.413352
-0.0838567    -0.242199    -0.564186
-0.182296    0.620458    -0.98127
0.346342    -0.123794    -0.0655194
-0.969465    -0.431801    0.172717
-0.301667    0.0427252    0.539294
-0.451646    -0.153916    -0.0385419
0.0230518    -0.130657    -0.146865
0.578213    -0.163838    0.093266
-1.41639    0.670892    -0.580888
-0.304755    0.772748    -0.932398
-2.16827    -0.445049    -2.49841
0.0702889    -1.35149    -0.786784
0.71897    -1.09109    1.77117
3.18783    -1.04562    1.07894
1.94645    0.0201271    2.03112
1.03812    0.159399    0.5975
-0.268251    -0.868151    -0.0858617
1.21063    -0.839031    0.165623
0.0189668    -0.0835    -0.46287
0.529672    0.182115    0.845893
-0.0816119    0.169625    0.262894
-0.948872    0.866556    -0.187112
-0.217653    0.647473    -0.337475
0.492028    0.756534    -0.565493
-0.117387    0.752514    -0.375946
-0.604008    -0.272776    0.216964
-1.49309    -1.02544    -0.190231
-1.69617    -0.199705    -0.777344
-1.9517    0.539122    0.181275
-1.5123    1.14946    -0.397644
-0.981532    0.183124    -0.543953
-0.278851    -0.0303418    -0.612664
1.13281    -1.1068    -1.98598
0.483916    -0.233951    -0.0881596
-0.0296541    -0.559298    0.375083
0.0901055    0.260113    -1.73707
-1.07192    -0.602827    -0.647864
-1.19261    -1.5286    -0.24766
-0.308829    -0.319748    0.332613
-0.83687    0.0681054    0.208445
-0.475821    -0.488959    -0.164192
0.651925    1.13736    0.151958
-0.386527    0.66193    0.140073
0.140927    0.402118    -0.185449
2.50173    0.296987    -0.786283
1.70832    0.374148    -0.895046
2.01776    0.646881    -0.506053
-0.844913    1.22054    1.29575
-1.3045    1.54181    2.01426
0.141106    2.12991    0.324098
-0.309437    -0.129667    0.078307
-0.97423    -0.984887    0.506321
-0.58082    0.0564958    0.0356157
0.604189    -0.536824    -1.13148
0.436565    -0.265594    0.414429
-1.15586    0.428484    -0.728342
0.0940471    1.10747    0.685711
0.481026    -0.337266    0.114112
-0.944138    0.61336    0.960459
-2.37831    0.28861    1.44275
-0.700553    0.587463    2.74522
0.292156    0.804187    0.13462
1.36696    0.99628    0.194268
-0.269343    -0.9487    0.171146
-1.0277    -1.41083    -0.425654
-2.76817    0.632291    0.159543
-0.11552    0.423852    -0.0673428
0.660113    1.27712    -0.302925
-1.13817    0.59334    -0.0860154
-1.78378    0.84358    -0.00359464
-0.0671301    0.945562    0.0733103
-1.25584    0.194142    -0.535257
-0.502628    0.615646    1.19087
0.618021    -2.09806    -0.349886
-0.139723    0.102298    -1.18083
-0.152312    0.0321961    0.182314
-1.42533    -0.258809    1.47061
-0.342118    -0.0130986    2.16958
-0.689745    0.298921    1.2834
-1.94362    -0.0671639    -0.983151
-2.0119    -0.382407    -0.700031
-0.440658    1.68871    -0.334044
0.455561    1.98132    0.863641
0.250447    -0.857199    0.698137
-1.22777    -0.721634    0.421004
-0.464013    1.13255    0.994663
-0.487957    0.0978041    2.02765
0.0698331    0.400247    -0.323742
-1.02258    0.920563    0.128986
1.0303    0.482216    -1.11276
0.639706    2.23393    -1.26935
0.762838    -0.244096    0.692858
-1.23447    1.54567    -0.597586
1.2015    0.190164    0.439725
0.589234    2.1137    0.90804
0.42476    0.0674467    0.927953
0.369357    -1.01083    -0.0298323
0.407917    -1.12877    1.22305
0.143125    -2.09424    -0.797478
-0.115114    0.200801    0.0918755
-0.687821    -0.537394    0.336184
-0.713482    0.560479    0.20239
-0.212657    -0.624977    0.333592
0.580801    -1.83783    -1.18516
1.08025    -2.04593    0.109423
0.20693    -0.363174    -0.794531
-0.100594    -0.420604    -2.58705
-0.00361086    -0.210265    -0.223162
-0.628092    -0.680794    0.919348
-0.0588243    -0.213497    -0.488942
0.4244    -0.413429    0.866754
-1.36375    -1.06946    0.977433
-1.00899    0.301815    1.1185
0.0809213    0.368834    -0.772259
0.801836    0.254487    0.649405
0.152192    -0.939542    -0.47179
-1.10448    0.955078    -1.52333
-0.969749    -0.708258    0.59381
0.372095    -0.356938    0.948795
-1.00329    -0.130678    0.327781
-1.36386    -0.0499202    0.749854
-0.317201    -0.633087    0.507205
1.13329    0.334217    -0.730786
0.788496    0.331249    0.339775
-0.32256    0.314557    -1.34019
0.875071    -0.923298    -1.4306
0.112391    0.614852    -1.25613
-0.0245742    0.219343    0.335755
0.591926    0.823787    -0.1324
0.389376    0.58413    -0.594912
-0.41997    0.131958    0.292686
0.151156    -0.0165362    -0.79883
-0.0851442    0.397408    0.777231
2.26259    -1.15551    0.305406
-0.552863    -1.06475    -0.370594
-0.57207    -2.87403    -1.92106
-0.0522577    -2.95207    -0.206543
-0.0766135    -0.763079    -0.679509
-1.35148    0.415721    -0.426703
-0.580531    -0.577246    -0.680224
0.421633    -0.172544    0.0106325
0.433577    -0.668713    0.713618
0.183213    -0.262201    0.6589
1.57949    1.74164    -0.24348
2.03153    1.46509    1.44648
-0.249752    -1.25469    -0.553424
0.447279    -0.157379    0.495387
-1.44324    0.556445    0.161267
-0.697349    0.271902    0.0934449
-0.0351744    -0.312887    0.49581
-1.94585    0.147054    0.0735796
-1.60204    0.813641    1.22141
-1.34866    0.345578    0.590261
-0.783261    0.444509    0.675008
-1.83901    -1.87171    1.35572
-1.57623    -0.854947    0.451186
-1.10376    1.29577    1.49279
-1.1645    -0.699445    1.51931
0.359412    -0.0225673    0.235066
0.362176    -1.06112    0.0430188
0.564846    -0.965858    -0.0390423
-0.357505    -0.447316    0.307874
-1.06032    -0.55437    -1.78071
1.0193    0.747653    1.14357
-0.609446    0.0785905    0.429226
-1.24423    1.28019    1.77612
-0.0593867    0.809384    -0.736001
0.696636    0.810955    1.65102
0.841453    -0.616716    1.80796
-2.33269    -1.64157    1.22408
-0.404873    0.0768887    0.336907
1.07226    0.057404    -0.456205
-0.103939    -0.719502    -0.808848
-0.302677    1.08504    1.21042
0.391918    0.36146    0.918446
0.259654    -0.380486    -0.573624
0.178944    0.161847    0.706646
-0.534921    1.36213    -0.596005
0.0273707    0.294559    -0.885922
-0.164024    -2.45059    0.0436338
1.37044    -0.907023    -0.162577
0.411042    -0.616841    -0.232414
