-0.280776  -0.280776  -0.280776
-0.0240267  -0.0240267  -0.0240267
-0.0830397  -0.0830397  -0.0830397
0.00648775  0.00648775  0.00648775
0.245188  0.245188  0.245188
0.111945  0.111945  0.111945
0.0691296  0.0691296  0.0691296
0.241628  0.241628  0.241628
-0.026449  -0.026449  -0.026449
-0.309221  -0.309221  -0.309221
0.396134  0.396134  0.396134
-0.0339468  -0.0339468  -0.0339468
-0.520142  -0.520142  -0.520142
-0.0454251  -0.0454251  -0.0454251
0.0446163  0.0446163  0.0446163
0.164792  0.164792  0.164792
-0.410851  -0.410851  -0.410851
-0.148454  -0.148454  -0.148454
0.120889  0.120889  0.120889
0.0216306  0.0216306  0.0216306
0.0310583  0.0310583  0.0310583
1.08068  1.08068  1.08068
-0.0738995  -0.0738995  -0.0738995
0.362311  0.362311  0.362311
-0.121367  -0.121367  -0.121367
0.0749021  0.0749021  0.0749021
-0.196267  -0.196267  -0.196267
0.0405714  0.0405714  0.0405714
0.0405714  0.0405714  0.0405714
0.198983  0.198983  0.198983
-0.0773181  -0.0773181  -0.0773181
1.01645  1.01645  1.01645
0.320628  0.320628  0.320628
-0.720688  -0.720688  -0.720688
-0.242383  -0.242383  -0.242383
0.745548  0.745548  0.745548
-0.233718  -0.233718  -0.233718
-0.0930463  -0.0930463  -0.0930463
0.0889636  0.0889636  0.0889636
0.0223609  0.0223609  0.0223609
-0.302949  -0.302949  -0.302949
-0.206542  -0.206542  -0.206542
0.148763  0.148763  0.148763
0.518226  0.518226  0.518226
-0.228128  -0.228128  -0.228128
-0.121933  -0.121933  -0.121933
-0.434498  -0.434498  -0.434498
0.353075  0.353075  0.353075
-0.314413  -0.314413  -0.314413
0.102162  0.102162  0.102162
0.426748  0.426748  0.426748
0.993204  0.993204  0.993204
0.700487  0.700487  0.700487
-1.93737  -1.93737  -1.93737
-1.28125  -1.28125  -1.28125
0.721978  0.721978  0.721978
-0.426656  -0.426656  -0.426656
-0.572187  -0.572187  -0.572187
0.202166  0.202166  0.202166
-0.411472  -0.411472  -0.411472
-0.268235  -0.268235  -0.268235
0.0210969  0.0210969  0.0210969
-0.23751  -0.23751  -0.23751
0.337189  0.337189  0.337189
-0.0613798  -0.0613798  -0.0613798
0.200179  0.200179  0.200179
0.181808  0.181808  0.181808
-0.165671  -0.165671  -0.165671
-0.0253149  -0.0253149  -0.0253149
-0.0312193  -0.0312193  -0.0312193
-0.398675  -0.398675  -0.398675
-1.1636  -1.1636  -1.1636
-0.0700449  -0.0700449  -0.0700449
0.0457385  0.0457385  0.0457385
-0.256945  -0.256945  -0.256945
0.427385  0.427385  0.427385
0.17419  0.17419  0.17419
-0.420551  -0.420551  -0.420551
0.350699  0.350699  0.350699
-0.181274  -0.181274  -0.181274
0.11081  0.11081  0.11081
0.155726  0.155726  0.155726
-0.417277  -0.417277  -0.417277
0.0541123  0.0541123  0.0541123
0.0908341  0.0908341  0.0908341
-0.067066  -0.067066  -0.067066
-0.160655  -0.160655  -0.160655
0.0553771  0.0553771  0.0553771
0.0677645  0.0677645  0.0677645
-0.6021  -0.6021  -0.6021
-0.343687  -0.343687  -0.343687
-0.224821  -0.224821  -0.224821
0.000153319  0.000153319  0.000153319
0.0698958  0.0698958  0.0698958
0.212721  0.212721  0.212721
-0.196439  -0.196439  -0.196439
-0.182905  -0.182905  -0.182905
0.421965  0.421965  0.421965
-0.189054  -0.189054  -0.189054
0.501009  0.501009  0.501009
0.76748  0.76748  0.76748
-0.525186  -0.525186  -0.525186
0.0326636  0.0326636  0.0326636
-0.281553  -0.281553  -0.281553
0.0247939  0.0247939  0.0247939
-0.00781487  -0.00781487  -0.00781487
0.711244  0.711244  0.711244
0.658242  0.658242  0.658242
0.0534955  0.0534955  0.0534955
-0.312154  -0.312154  -0.312154
-0.113162  -0.113162  -0.113162
0.0376634  0.0376634  0.0376634
-0.096705  -0.096705  -0.096705
0.0779808  0.0779808  0.0779808
0.00426057  0.00426057  0.00426057
-0.0800353  -0.0800353  -0.0800353
0.37835  0.37835  0.37835
1.42285  1.42285  1.42285
0.164151  0.164151  0.164151
-1.64796  -1.64796  -1.64796
-0.0594686  -0.0594686  -0.0594686
0.285853  0.285853  0.285853
0.0389033  0.0389033  0.0389033
-0.00972286  -0.00972286  -0.00972286
-0.237227  -0.237227  -0.237227
-0.173771  -0.173771  -0.173771
-0.0315808  -0.0315808  -0.0315808
-0.186259  -0.186259  -0.186259
-0.364376  -0.364376  -0.364376
0.0333262  0.0333262  0.0333262
-0.166779  -0.166779  -0.166779
0.317061  0.317061  0.317061
-0.341889  -0.341889  -0.341889
-0.214447  -0.214447  -0.214447
-0.470022  -0.470022  -0.470022
-0.0584942  -0.0584942  -0.0584942
-0.124264  -0.124264  -0.124264
0.0193224  0.0193224  0.0193224
0.296579  0.296579  0.296579
-0.00772281  -0.00772281  -0.00772281
-0.00772281  -0.00772281  -0.00772281
-0.0475874  -0.0475874  -0.0475874
-0.254089  -0.254089  -0.254089
-0.145625  -0.145625  -0.145625
-0.116652  -0.116652  -0.116652
0.0174657  0.0174657  0.0174657
-0.2969  -0.2969  -0.2969
0.3056  0.3056  0.3056
-0.732013  -0.732013  -0.732013
0.292929  0.292929  0.292929
0.296669  0.296669  0.296669
0.339998  0.339998  0.339998
-0.623694  -0.623694  -0.623694
0.181713  0.181713  0.181713
-0.0953285  -0.0953285  -0.0953285
-0.083099  -0.083099  -0.083099
-0.0421327  -0.0421327  -0.0421327
-1.25274  -1.25274  -1.25274
-0.862851  -0.862851  -0.862851
-0.0549509  -0.0549509  -0.0549509
0.919444  0.919444  0.919444
0.397288  0.397288  0.397288
0.115216  0.115216  0.115216
0.451878  0.451878  0.451878
-0.544711  -0.544711  -0.544711
-0.704008  -0.704008  -0.704008
0.305855  0.305855  0.305855
0.608511  0.608511  0.608511
-2.26786  -2.26786  -2.26786
-0.817176  -0.817176  -0.817176
-0.0336708  -0.0336708  -0.0336708
0.0893843  0.0893843  0.0893843
0.348249  0.348249  0.348249
0.143294  0.143294  0.143294
0.429447  0.429447  0.429447
0.729957  0.729957  0.729957
-0.444708  -0.444708  -0.444708
0.28788  0.28788  0.28788
0.651241  0.651241  0.651241
-0.307809  -0.307809  -0.307809
-0.385948  -0.385948  -0.385948
0.123306  0.123306  0.123306
-0.449049  -0.449049  -0.449049
-0.30599  -0.30599  -0.30599
0.0373746  0.0373746  0.0373746
-0.236195  -0.236195  -0.236195
-0.0392268  -0.0392268  -0.0392268
0.189819  0.189819  0.189819
-0.642947  -0.642947  -0.642947
0.379768  0.379768  0.379768
0.436135  0.436135  0.436135
0.0152335  0.0152335  0.0152335
0.0256644  0.0256644  0.0256644
0.446459  0.446459  0.446459
-0.00726604  -0.00726604  -0.00726604
0.0395445  0.0395445  0.0395445
0.311846  0.311846  0.311846
0.218507  0.218507  0.218507
1.07896  1.07896  1.07896
0.043174  0.043174  0.043174
-0.0720972  -0.0720972  -0.0720972
0.375772  0.375772  0.375772
0.00770842  0.00770842  0.00770842
0.0927963  0.0927963  0.0927963
-0.742522  -0.742522  -0.742522
-0.00232152  -0.00232152  -0.00232152
0.364474  0.364474  0.364474
-0.0497589  -0.0497589  -0.0497589
0.203778  0.203778  0.203778
-0.439684  -0.439684  -0.439684
-0.216766  -0.216766  -0.216766
-0.576155  -0.576155  -0.576155
0.349491  0.349491  0.349491
-0.00735286  -0.00735286  -0.00735286
-0.0536116  -0.0536116  -0.0536116
0.0400082  0.0400082  0.0400082
0.100583  0.100583  0.100583
-0.0955967  -0.0955967  -0.0955967
-0.193332  -0.193332  -0.193332
-0.186423  -0.186423  -0.186423
-0.0478375  -0.0478375  -0.0478375
0.0669156  0.0669156  0.0669156
0.448549  0.448549  0.448549
0.99979  0.99979  0.99979
0.0692235  0.0692235  0.0692235
-0.0517517  -0.0517517  -0.0517517
0.250633  0.250633  0.250633
-0.871951  -0.871951  -0.871951
-0.114262  -0.114262  -0.114262
-0.701915  -0.701915  -0.701915
0.0228988  0.0228988  0.0228988
-0.310539  -0.310539  -0.310539
-0.11595  -0.11595  -0.11595
-0.613271  -0.613271  -0.613271
0.324207  0.324207  0.324207
-0.204709  -0.204709  -0.204709
-0.25788  -0.25788  -0.25788
0.266669  0.266669  0.266669
-0.384285  -0.384285  -0.384285
-1.31121  -1.31121  -1.31121
-0.162732  -0.162732  -0.162732
-0.0335777  -0.0335777  -0.0335777
0.366284  0.366284  0.366284
1.13378  1.13378  1.13378
-0.4787  -0.4787  -0.4787
-0.550163  -0.550163  -0.550163
-0.158876  -0.158876  -0.158876
0.30587  0.30587  0.30587
-0.0790829  -0.0790829  -0.0790829
0.405406  0.405406  0.405406
0.012758  0.012758  0.012758
-0.275461  -0.275461  -0.275461
-0.580662  -0.580662  -0.580662
-0.231179  -0.231179  -0.231179
0.0820119  0.0820119  0.0820119
0.498222  0.498222  0.498222
0.060403  0.060403  0.060403
0.184331  0.184331  0.184331
-0.210423  -0.210423  -0.210423
0.446398  0.446398  0.446398
0.188335  0.188335  0.188335
0.214654  0.214654  0.214654
0.215655  0.215655  0.215655
-0.585027  -0.585027  -0.585027
-0.963707  -0.963707  -0.963707
-0.225455  -0.225455  -0.225455
0.594251  0.594251  0.594251
-0.662351  -0.662351  -0.662351
-0.110332  -0.110332  -0.110332
-0.003308  -0.003308  -0.003308
-0.348164  -0.348164  -0.348164
0.634682  0.634682  0.634682
0.099464  0.099464  0.099464
0.184963  0.184963  0.184963
0.342543  0.342543  0.342543
-0.36016  -0.36016  -0.36016
-0.687334  -0.687334  -0.687334
-0.0245251  -0.0245251  -0.0245251
-0.0936141  -0.0936141  -0.0936141
0.0499307  0.0499307  0.0499307
-0.462652  -0.462652  -0.462652
-0.257441  -0.257441  -0.257441
0.624978  0.624978  0.624978
-0.0574818  -0.0574818  -0.0574818
0.380031  0.380031  0.380031
-0.33804  -0.33804  -0.33804
0.298284  0.298284  0.298284
0.0932165  0.0932165  0.0932165
0.0111311  0.0111311  0.0111311
-0.113329  -0.113329  -0.113329
0.137253  0.137253  0.137253
-0.653967  -0.653967  -0.653967
-1.1218  -1.1218  -1.1218
-0.783876  -0.783876  -0.783876
-0.386142  -0.386142  -0.386142
0.695343  0.695343  0.695343
0.327294  0.327294  0.327294
-0.396797  -0.396797  -0.396797
-0.142863  -0.142863  -0.142863
0.547065  0.547065  0.547065
-0.393221  -0.393221  -0.393221
-0.0844036  -0.0844036  -0.0844036
0.202473  0.202473  0.202473
-0.120884  -0.120884  -0.120884
-0.143796  -0.143796  -0.143796
-0.54321  -0.54321  -0.54321
-0.287008  -0.287008  -0.287008
0.1927  0.1927  0.1927
0.228886  0.228886  0.228886
-0.185719  -0.185719  -0.185719
0.0602403  0.0602403  0.0602403
0.0311717  0.0311717  0.0311717
-0.0604804  -0.0604804  -0.0604804
-0.122005  -0.122005  -0.122005
1.08306  1.08306  1.08306
0.797263  0.797263  0.797263
-0.445812  -0.445812  -0.445812
0.660723  0.660723  0.660723
-0.160251  -0.160251  -0.160251
0.537657  0.537657  0.537657
-0.0746137  -0.0746137  -0.0746137
0.755136  0.755136  0.755136
0.215278  0.215278  0.215278
-0.11402  -0.11402  -0.11402
0.107841  0.107841  0.107841
0.0923609  0.0923609  0.0923609
-0.509623  -0.509623  -0.509623
-0.684495  -0.684495  -0.684495
0.0648795  0.0648795  0.0648795
0.133927  0.133927  0.133927
0.265263  0.265263  0.265263
0.0278655  0.0278655  0.0278655
-0.402479  -0.402479  -0.402479
-0.194943  -0.194943  -0.194943
-0.284714  -0.284714  -0.284714
0.18116  0.18116  0.18116
-0.140595  -0.140595  -0.140595
0.0829392  0.0829392  0.0829392
0.270944  0.270944  0.270944
1.09127  1.09127  1.09127
1.16952  1.16952  1.16952
0.00690836  0.00690836  0.00690836
0.0498645  0.0498645  0.0498645
0.0495048  0.0495048  0.0495048
0.0543642  0.0543642  0.0543642
-0.292921  -0.292921  -0.292921
0.882925  0.882925  0.882925
0.681102  0.681102  0.681102
-0.523064  -0.523064  -0.523064
-0.17052  -0.17052  -0.17052
-0.256731  -0.256731  -0.256731
-0.228497  -0.228497  -0.228497
-0.492383  -0.492383  -0.492383
0.233737  0.233737  0.233737
-0.877864  -0.877864  -0.877864
-0.231142  -0.231142  -0.231142
0.739683  0.739683  0.739683
-0.782309  -0.782309  -0.782309
0.191926  0.191926  0.191926
0.571102  0.571102  0.571102
-0.173749  -0.173749  -0.173749
-0.0165938  -0.0165938  -0.0165938
0.210405  0.210405  0.210405
-0.0357631  -0.0357631  -0.0357631
0.097383  0.097383  0.097383
-0.160933  -0.160933  -0.160933
-0.0510155  -0.0510155  -0.0510155
-0.191934  -0.191934  -0.191934
-0.0518644  -0.0518644  -0.0518644
-0.0880607  -0.0880607  -0.0880607
0.243168  0.243168  0.243168
-0.509662  -0.509662  -0.509662
-0.342819  -0.342819  -0.342819
-0.548889  -0.548889  -0.548889
-0.183  -0.183  -0.183
0.0434168  0.0434168  0.0434168
-0.0142389  -0.0142389  -0.0142389
-0.278831  -0.278831  -0.278831
-0.483081  -0.483081  -0.483081
-0.272993  -0.272993  -0.272993
0.469564  0.469564  0.469564
-0.375461  -0.375461  -0.375461
-0.117626  -0.117626  -0.117626
0.228862  0.228862  0.228862
0.165639  0.165639  0.165639
-0.896239  -0.896239  -0.896239
-0.587981  -0.587981  -0.587981
0.171225  0.171225  0.171225
0.202461  0.202461  0.202461
0.498475  0.498475  0.498475
-1.15953  -1.15953  -1.15953
-0.330718  -0.330718  -0.330718
-0.132378  -0.132378  -0.132378
0.0662164  0.0662164  0.0662164
0.425515  0.425515  0.425515
0.229684  0.229684  0.229684
0.286086  0.286086  0.286086
-0.0279172  -0.0279172  -0.0279172
-0.0730744  -0.0730744  -0.0730744
-0.261095  -0.261095  -0.261095
0.269243  0.269243  0.269243
0.618278  0.618278  0.618278
-0.433335  -0.433335  -0.433335
0.072667  0.072667  0.072667
0.07067  0.07067  0.07067
-0.680809  -0.680809  -0.680809
-0.108288  -0.108288  -0.108288
-0.224081  -0.224081  -0.224081
0.0166898  0.0166898  0.0166898
0.395224  0.395224  0.395224
-0.083459  -0.083459  -0.083459
-0.0601145  -0.0601145  -0.0601145
0.098128  0.098128  0.098128
-0.317545  -0.317545  -0.317545
-0.147079  -0.147079  -0.147079
-0.678033  -0.678033  -0.678033
-0.797424  -0.797424  -0.797424
-0.262265  -0.262265  -0.262265
0.66308  0.66308  0.66308
0.147387  0.147387  0.147387
0.0725183  0.0725183  0.0725183
-0.588202  -0.588202  -0.588202
0.00221558  0.00221558  0.00221558
-0.355451  -0.355451  -0.355451
-0.345689  -0.345689  -0.345689
-0.226399  -0.226399  -0.226399
-0.0345451  -0.0345451  -0.0345451
0.00670705  0.00670705  0.00670705
0.250016  0.250016  0.250016
0.0245835  0.0245835  0.0245835
-1.0647  -1.0647  -1.0647
-0.490712  -0.490712  -0.490712
0.463165  0.463165  0.463165
-0.40446  -0.40446  -0.40446
0.143322  0.143322  0.143322
-0.0915474  -0.0915474  -0.0915474
0.54252  0.54252  0.54252
0.377745  0.377745  0.377745
0.843627  0.843627  0.843627
-0.218484  -0.218484  -0.218484
0.44487  0.44487  0.44487
0.274678  0.274678  0.274678
0.364576  0.364576  0.364576
0.312227  0.312227  0.312227
0.0586085  0.0586085  0.0586085
-0.242015  -0.242015  -0.242015
-0.344778  -0.344778  -0.344778
-0.135531  -0.135531  -0.135531
-0.0135184  -0.0135184  -0.0135184
0.322422  0.322422  0.322422
0.569384  0.569384  0.569384
0.173972  0.173972  0.173972
-0.270624  -0.270624  -0.270624
-0.0390422  -0.0390422  -0.0390422
0.156614  0.156614  0.156614
-0.14788  -0.14788  -0.14788
0.433924  0.433924  0.433924
0.581401  0.581401  0.581401
0.179148  0.179148  0.179148
0.515504  0.515504  0.515504
1.10423  1.10423  1.10423
-0.833365  -0.833365  -0.833365
-0.354887  -0.354887  -0.354887
-0.621095  -0.621095  -0.621095
0.48996  0.48996  0.48996
-0.0020681  -0.0020681  -0.0020681
0.0135295  0.0135295  0.0135295
0.158825  0.158825  0.158825
-0.141758  -0.141758  -0.141758
-0.259272  -0.259272  -0.259272
-0.350229  -0.350229  -0.350229
0.354521  0.354521  0.354521
0.280413  0.280413  0.280413
0.64189  0.64189  0.64189
-0.627379  -0.627379  -0.627379
0.170293  0.170293  0.170293
0.019585  0.019585  0.019585
-0.0306882  -0.0306882  -0.0306882
0.179965  0.179965  0.179965
0.191827  0.191827  0.191827
0.0317071  0.0317071  0.0317071
0.0311541  0.0311541  0.0311541
0.452948  0.452948  0.452948
-0.104511  -0.104511  -0.104511
0.0914865  0.0914865  0.0914865
-0.446959  -0.446959  -0.446959
-0.218749  -0.218749  -0.218749
-0.441656  -0.441656  -0.441656
0.183736  0.183736  0.183736
0.0652717  0.0652717  0.0652717
0.685755  0.685755  0.685755
-0.604692  -0.604692  -0.604692
-0.288315  -0.288315  -0.288315
0.0457543  0.0457543  0.0457543
-0.0670867  -0.0670867  -0.0670867
0.598292  0.598292  0.598292
-0.324777  -0.324777  -0.324777
-0.0843765  -0.0843765  -0.0843765
0.394498  0.394498  0.394498
-0.0383528  -0.0383528  -0.0383528
-0.0580783  -0.0580783  -0.0580783
-0.0755252  -0.0755252  -0.0755252
0.621938  0.621938  0.621938
-0.471917  -0.471917  -0.471917
1.86892  1.86892  1.86892
0.63319  0.63319  0.63319
0.269693  0.269693  0.269693
0.193803  0.193803  0.193803
-0.0744746  -0.0744746  -0.0744746
0.327386  0.327386  0.327386
0.621271  0.621271  0.621271
-0.178096  -0.178096  -0.178096
0.0731644  0.0731644  0.0731644
-0.0662821  -0.0662821  -0.0662821
0.857631  0.857631  0.857631
0.580561  0.580561  0.580561
0.32378  0.32378  0.32378
0.179305  0.179305  0.179305
-0.0554475  -0.0554475  -0.0554475
-0.0344001  -0.0344001  -0.0344001
-0.0449087  -0.0449087  -0.0449087
0.312587  0.312587  0.312587
-0.0301914  -0.0301914  -0.0301914
0.471558  0.471558  0.471558
-0.350855  -0.350855  -0.350855
0.07833  0.07833  0.07833
-1.3016  -1.3016  -1.3016
0.113793  0.113793  0.113793
0.0517778  0.0517778  0.0517778
0.0517778  0.0517778  0.0517778
-0.143884  -0.143884  -0.143884
-0.247068  -0.247068  -0.247068
-0.348131  -0.348131  -0.348131
-0.238548  -0.238548  -0.238548
-0.161855  -0.161855  -0.161855
-0.373286  -0.373286  -0.373286
-0.030004  -0.030004  -0.030004
0.410338  0.410338  0.410338
0.386475  0.386475  0.386475
-0.0753072  -0.0753072  -0.0753072
0.0534493  0.0534493  0.0534493
-1.42713  -1.42713  -1.42713
-1.74308  -1.74308  -1.74308
-0.00833129  -0.00833129  -0.00833129
-0.0534701  -0.0534701  -0.0534701
0.120299  0.120299  0.120299
0.574447  0.574447  0.574447
0.644556  0.644556  0.644556
0.147235  0.147235  0.147235
-0.0863191  -0.0863191  -0.0863191
-0.309407  -0.309407  -0.309407
-0.286271  -0.286271  -0.286271
0.00386974  0.00386974  0.00386974
0.215902  0.215902  0.215902
0.245267  0.245267  0.245267
-0.464686  -0.464686  -0.464686
-0.322253  -0.322253  -0.322253
-0.378277  -0.378277  -0.378277
0.304238  0.304238  0.304238
0.0372319  0.0372319  0.0372319
0.0336925  0.0336925  0.0336925
-0.0118502  -0.0118502  -0.0118502
-0.194291  -0.194291  -0.194291
0.121641  0.121641  0.121641
0.73474  0.73474  0.73474
0.0482598  0.0482598  0.0482598
0.200594  0.200594  0.200594
0.484741  0.484741  0.484741
0.066075  0.066075  0.066075
0.314304  0.314304  0.314304
-0.162385  -0.162385  -0.162385
-0.474301  -0.474301  -0.474301
-0.106979  -0.106979  -0.106979
0.569929  0.569929  0.569929
-0.130384  -0.130384  -0.130384
-0.145324  -0.145324  -0.145324
-0.0144432  -0.0144432  -0.0144432
-0.0300952  -0.0300952  -0.0300952
-0.228008  -0.228008  -0.228008
0.510219  0.510219  0.510219
0.346616  0.346616  0.346616
0.217075  0.217075  0.217075
0.191832  0.191832  0.191832
0.058507  0.058507  0.058507
-0.35202  -0.35202  -0.35202
0.234166  0.234166  0.234166
0.121269  0.121269  0.121269
0.296197  0.296197  0.296197
-0.000874059  -0.000874059  -0.000874059
0.176969  0.176969  0.176969
-0.743292  -0.743292  -0.743292
-0.248937  -0.248937  -0.248937
-0.0490336  -0.0490336  -0.0490336
-0.0405921  -0.0405921  -0.0405921
0.634502  0.634502  0.634502
1.07025  1.07025  1.07025
-0.468899  -0.468899  -0.468899
-0.0386737  -0.0386737  -0.0386737
-0.0765917  -0.0765917  -0.0765917
1.14371  1.14371  1.14371
0.0375558  0.0375558  0.0375558
-0.100562  -0.100562  -0.100562
0.338811  0.338811  0.338811
0.461043  0.461043  0.461043
0.131735  0.131735  0.131735
-0.382619  -0.382619  -0.382619
-0.0122577  -0.0122577  -0.0122577
0.183159  0.183159  0.183159
0.391619  0.391619  0.391619
0.501827  0.501827  0.501827
-0.323115  -0.323115  -0.323115
0.0742439  0.0742439  0.0742439
0.0759256  0.0759256  0.0759256
-0.146097  -0.146097  -0.146097
-0.205133  -0.205133  -0.205133
-0.16484  -0.16484  -0.16484
0.286264  0.286264  0.286264
0.265523  0.265523  0.265523
-0.325032  -0.325032  -0.325032
-0.0591051  -0.0591051  -0.0591051
-0.369658  -0.369658  -0.369658
-1.03635  -1.03635  -1.03635
-0.234454  -0.234454  -0.234454
0.46732  0.46732  0.46732
1.25763  1.25763  1.25763
-0.0384738  -0.0384738  -0.0384738
0.402588  0.402588  0.402588
-0.0124982  -0.0124982  -0.0124982
0.110657  0.110657  0.110657
-0.757524  -0.757524  -0.757524
-0.0414672  -0.0414672  -0.0414672
0.0423702  0.0423702  0.0423702
-0.0791616  -0.0791616  -0.0791616
-0.129556  -0.129556  -0.129556
0.0282203  0.0282203  0.0282203
0.0282203  0.0282203  0.0282203
0.757908  0.757908  0.757908
0.0572866  0.0572866  0.0572866
-0.0800466  -0.0800466  -0.0800466
-0.310516  -0.310516  -0.310516
-0.311228  -0.311228  -0.311228
-0.10234  -0.10234  -0.10234
-0.283925  -0.283925  -0.283925
0.287351  0.287351  0.287351
-0.227777  -0.227777  -0.227777
-1.00665  -1.00665  -1.00665
0.273984  0.273984  0.273984
0.545126  0.545126  0.545126
-0.354884  -0.354884  -0.354884
0.0417942  0.0417942  0.0417942
-0.0822335  -0.0822335  -0.0822335
-0.829801  -0.829801  -0.829801
0.0628692  0.0628692  0.0628692
6.86599e-05  6.86599e-05  6.86599e-05
-0.53265  -0.53265  -0.53265
-0.157253  -0.157253  -0.157253
0.169547  0.169547  0.169547
-0.312154  -0.312154  -0.312154
-0.823265  -0.823265  -0.823265
-0.0155229  -0.0155229  -0.0155229
0.0950191  0.0950191  0.0950191
0.128774  0.128774  0.128774
0.658202  0.658202  0.658202
0.0507285  0.0507285  0.0507285
-0.463935  -0.463935  -0.463935
0.455697  0.455697  0.455697
0.426106  0.426106  0.426106
0.0657694  0.0657694  0.0657694
-0.270859  -0.270859  -0.270859
0.1146  0.1146  0.1146
0.379622  0.379622  0.379622
0.184626  0.184626  0.184626
-0.335419  -0.335419  -0.335419
0.103326  0.103326  0.103326
0.113192  0.113192  0.113192
-0.843219  -0.843219  -0.843219
0.0573732  0.0573732  0.0573732
-0.0219025  -0.0219025  -0.0219025
0.981925  0.981925  0.981925
-0.0143852  -0.0143852  -0.0143852
-0.669678  -0.669678  -0.669678
0.179461  0.179461  0.179461
-0.267194  -0.267194  -0.267194
0.00142652  0.00142652  0.00142652
0.0254527  0.0254527  0.0254527
-0.00239504  -0.00239504  -0.00239504
0.260116  0.260116  0.260116
0.355215  0.355215  0.355215
0.0198768  0.0198768  0.0198768
0.361674  0.361674  0.361674
0.385204  0.385204  0.385204
0.00391509  0.00391509  0.00391509
-0.0156119  -0.0156119  -0.0156119
-0.0156119  -0.0156119  -0.0156119
-0.292836  -0.292836  -0.292836
0.0587753  0.0587753  0.0587753
0.00740911  0.00740911  0.00740911
-0.00514364  -0.00514364  -0.00514364
0.339571  0.339571  0.339571
0.836099  0.836099  0.836099
-0.378949  -0.378949  -0.378949
-0.00416342  -0.00416342  -0.00416342
0.00960885  0.00960885  0.00960885
-0.597917  -0.597917  -0.597917
0.0974342  0.0974342  0.0974342
0.108615  0.108615  0.108615
-0.421081  -0.421081  -0.421081
-0.118927  -0.118927  -0.118927
0.357309  0.357309  0.357309
-0.61195  -0.61195  -0.61195
-0.193153  -0.193153  -0.193153
0.237422  0.237422  0.237422
-0.011886  -0.011886  -0.011886
1.02192  1.02192  1.02192
0.442043  0.442043  0.442043
0.0775333  0.0775333  0.0775333
0.269477  0.269477  0.269477
-0.664841  -0.664841  -0.664841
-0.278226  -0.278226  -0.278226
0.00866913  0.00866913  0.00866913
-0.0861592  -0.0861592  -0.0861592
-0.0379716  -0.0379716  -0.0379716
-0.355121  -0.355121  -0.355121
-1.01809  -1.01809  -1.01809
-0.188266  -0.188266  -0.188266
0.0296814  0.0296814  0.0296814
-0.186911  -0.186911  -0.186911
0.0333685  0.0333685  0.0333685
-0.243469  -0.243469  -0.243469
0.291741  0.291741  0.291741
-0.0845625  -0.0845625  -0.0845625
-0.188825  -0.188825  -0.188825
-0.28065  -0.28065  -0.28065
-0.0224414  -0.0224414  -0.0224414
0.0523193  0.0523193  0.0523193
0.237472  0.237472  0.237472
-0.132242  -0.132242  -0.132242
-0.756309  -0.756309  -0.756309
-2.24205  -2.24205  -2.24205
-0.00509168  -0.00509168  -0.00509168
0.347424  0.347424  0.347424
0.121278  0.121278  0.121278
0.295489  0.295489  0.295489
-0.0263219  -0.0263219  -0.0263219
0.498007  0.498007  0.498007
-0.212292  -0.212292  -0.212292
-0.133096  -0.133096  -0.133096
-0.180981  -0.180981  -0.180981
0.185732  0.185732  0.185732
0.0365714  0.0365714  0.0365714
-0.0545766  -0.0545766  -0.0545766
-0.0128574  -0.0128574  -0.0128574
0.152083  0.152083  0.152083
-0.0379364  -0.0379364  -0.0379364
0.128338  0.128338  0.128338
0.191707  0.191707  0.191707
-0.317057  -0.317057  -0.317057
-0.111506  -0.111506  -0.111506
-1.05953  -1.05953  -1.05953
-1.29003  -1.29003  -1.29003
-0.0725377  -0.0725377  -0.0725377
-0.104194  -0.104194  -0.104194
0.0247772  0.0247772  0.0247772
0.130307  0.130307  0.130307
-0.165343  -0.165343  -0.165343
0.0798999  0.0798999  0.0798999
-0.199164  -0.199164  -0.199164
-0.644615  -0.644615  -0.644615
-0.975942  -0.975942  -0.975942
-0.836243  -0.836243  -0.836243
-0.450548  -0.450548  -0.450548
-0.755826  -0.755826  -0.755826
0.353128  0.353128  0.353128
-0.00989332  -0.00989332  -0.00989332
-0.713042  -0.713042  -0.713042
0.400928  0.400928  0.400928
-0.0650882  -0.0650882  -0.0650882
-0.341336  -0.341336  -0.341336
-1.54379  -1.54379  -1.54379
-0.013965  -0.013965  -0.013965
0.0649832  0.0649832  0.0649832
-0.0673672  -0.0673672  -0.0673672
-0.621431  -0.621431  -0.621431
-0.667438  -0.667438  -0.667438
-0.0215982  -0.0215982  -0.0215982
-0.932876  -0.932876  -0.932876
-0.0509386  -0.0509386  -0.0509386
0.200668  0.200668  0.200668
-0.478459  -0.478459  -0.478459
0.111248  0.111248  0.111248
0.029602  0.029602  0.029602
-0.155462  -0.155462  -0.155462
-0.198275  -0.198275  -0.198275
0.0128694  0.0128694  0.0128694
0.12531  0.12531  0.12531
-0.12732  -0.12732  -0.12732
0.119376  0.119376  0.119376
-0.195019  -0.195019  -0.195019
0.304284  0.304284  0.304284
0.392709  0.392709  0.392709
0.157209  0.157209  0.157209
-0.0931592  -0.0931592  -0.0931592
-0.103374  -0.103374  -0.103374
0.0953738  0.0953738  0.0953738
-0.0857369  -0.0857369  -0.0857369
0.421218  0.421218  0.421218
0.0337157  0.0337157  0.0337157
-0.674168  -0.674168  -0.674168
-0.0187224  -0.0187224  -0.0187224
-0.015484  -0.015484  -0.015484
0.744121  0.744121  0.744121
-0.0228755  -0.0228755  -0.0228755
0.372624  0.372624  0.372624
-0.0939948  -0.0939948  -0.0939948
-0.303968  -0.303968  -0.303968
0.24249  0.24249  0.24249
-0.167967  -0.167967  -0.167967
1.24597  1.24597  1.24597
-0.175712  -0.175712  -0.175712
-0.0295819  -0.0295819  -0.0295819
-0.140038  -0.140038  -0.140038
-0.508539  -0.508539  -0.508539
-0.0891145  -0.0891145  -0.0891145
0.199731  0.199731  0.199731
0.217981  0.217981  0.217981
0.0242445  0.0242445  0.0242445
0.527375  0.527375  0.527375
-0.397874  -0.397874  -0.397874
-0.166971  -0.166971  -0.166971
-0.486691  -0.486691  -0.486691
-0.406042  -0.406042  -0.406042
0.00271085  0.00271085  0.00271085
0.0321698  0.0321698  0.0321698
0.00674014  0.00674014  0.00674014
0.0177561  0.0177561  0.0177561
0.0276427  0.0276427  0.0276427
-0.0543675  -0.0543675  -0.0543675
-0.03591  -0.03591  -0.03591
0.269343  0.269343  0.269343
0.0235046  0.0235046  0.0235046
0.0748081  0.0748081  0.0748081
0.0461233  0.0461233  0.0461233
-0.218872  -0.218872  -0.218872
-0.0534241  -0.0534241  -0.0534241
0.124698  0.124698  0.124698
-0.342088  -0.342088  -0.342088
0.463509  0.463509  0.463509
-0.10471  -0.10471  -0.10471
-0.0799536  -0.0799536  -0.0799536
-0.259296  -0.259296  -0.259296
0.492514  0.492514  0.492514
-0.0601063  -0.0601063  -0.0601063
0.0688289  0.0688289  0.0688289
0.0817319  0.0817319  0.0817319
0.0817319  0.0817319  0.0817319
-0.931655  -0.931655  -0.931655
0.524819  0.524819  0.524819
0.234975  0.234975  0.234975
-0.602273  -0.602273  -0.602273
0.0769749  0.0769749  0.0769749
0.190091  0.190091  0.190091
0.0616101  0.0616101  0.0616101
0.342249  0.342249  0.342249
0.0299975  0.0299975  0.0299975
0.105885  0.105885  0.105885
-0.46564  -0.46564  -0.46564
0.254653  0.254653  0.254653
-0.199685  -0.199685  -0.199685
-0.639263  -0.639263  -0.639263
0.190551  0.190551  0.190551
-0.108593  -0.108593  -0.108593
0.00749814  0.00749814  0.00749814
-0.171384  -0.171384  -0.171384
0.686315  0.686315  0.686315
-0.147933  -0.147933  -0.147933
-0.0570312  -0.0570312  -0.0570312
-0.0523209  -0.0523209  -0.0523209
-0.138354  -0.138354  -0.138354
0.0341754  0.0341754  0.0341754
-0.130496  -0.130496  -0.130496
0.29422  0.29422  0.29422
0.14561  0.14561  0.14561
-0.756112  -0.756112  -0.756112
0.632489  0.632489  0.632489
0.749071  0.749071  0.749071
-1.14725  -1.14725  -1.14725
-1.99144  -1.99144  -1.99144
-0.450837  -0.450837  -0.450837
-0.124341  -0.124341  -0.124341
-0.425846  -0.425846  -0.425846
0.48897  0.48897  0.48897
-0.0108074  -0.0108074  -0.0108074
-0.160886  -0.160886  -0.160886
-0.129683  -0.129683  -0.129683
-0.224624  -0.224624  -0.224624
0.155956  0.155956  0.155956
0.055171  0.055171  0.055171
-0.387368  -0.387368  -0.387368
-0.212595  -0.212595  -0.212595
0.312949  0.312949  0.312949
-0.502494  -0.502494  -0.502494
0.514296  0.514296  0.514296
0.155336  0.155336  0.155336
0.11539  0.11539  0.11539
-0.587023  -0.587023  -0.587023
0.0356097  0.0356097  0.0356097
0.107137  0.107137  0.107137
-0.374859  -0.374859  -0.374859
0.134701  0.134701  0.134701
0.13964  0.13964  0.13964
0.0302002  0.0302002  0.0302002
0.0191761  0.0191761  0.0191761
-0.08514  -0.08514  -0.08514
-0.08514  -0.08514  -0.08514
0.159007  0.159007  0.159007
0.0416104  0.0416104  0.0416104
0.103801  0.103801  0.103801
0.0122172  0.0122172  0.0122172
-0.139342  -0.139342  -0.139342
0.525244  0.525244  0.525244
-0.91544  -0.91544  -0.91544
0.467989  0.467989  0.467989
0.436053  0.436053  0.436053
-0.188469  -0.188469  -0.188469
-0.211215  -0.211215  -0.211215
0.0551201  0.0551201  0.0551201
-0.53193  -0.53193  -0.53193
0.482197  0.482197  0.482197
0.0653498  0.0653498  0.0653498
0.0596932  0.0596932  0.0596932
-0.521329  -0.521329  -0.521329
-1.00964  -1.00964  -1.00964
0.427378  0.427378  0.427378
-0.117865  -0.117865  -0.117865
0.101906  0.101906  0.101906
-0.205437  -0.205437  -0.205437
0.0451456  0.0451456  0.0451456
0.08911  0.08911  0.08911
0.0814738  0.0814738  0.0814738
0.0771962  0.0771962  0.0771962
-0.221073  -0.221073  -0.221073
0.113145  0.113145  0.113145
0.295196  0.295196  0.295196
-0.196523  -0.196523  -0.196523
-0.0284907  -0.0284907  -0.0284907
-0.289282  -0.289282  -0.289282
0.0235593  0.0235593  0.0235593
0.590796  0.590796  0.590796
1.20192  1.20192  1.20192
1.08676  1.08676  1.08676
0.553362  0.553362  0.553362
-0.718923  -0.718923  -0.718923
-0.49734  -0.49734  -0.49734
1.1412  1.1412  1.1412
0.188229  0.188229  0.188229
0.175159  0.175159  0.175159
0.0405845  0.0405845  0.0405845
0.0645182  0.0645182  0.0645182
-0.180209  -0.180209  -0.180209
0.25527  0.25527  0.25527
-0.113333  -0.113333  -0.113333
-0.067779  -0.067779  -0.067779
-0.0176802  -0.0176802  -0.0176802
-0.488156  -0.488156  -0.488156
-0.40955  -0.40955  -0.40955
0.364017  0.364017  0.364017
-0.00761962  -0.00761962  -0.00761962
0.87859  0.87859  0.87859
0.0102618  0.0102618  0.0102618
0.316275  0.316275  0.316275
0.466383  0.466383  0.466383
-0.291419  -0.291419  -0.291419
0.107551  0.107551  0.107551
-0.86083  -0.86083  -0.86083
-0.228254  -0.228254  -0.228254
-0.340084  -0.340084  -0.340084
-0.457977  -0.457977  -0.457977
0.55018  0.55018  0.55018
-0.0373559  -0.0373559  -0.0373559
-0.332265  -0.332265  -0.332265
-0.443633  -0.443633  -0.443633
0.386497  0.386497  0.386497
-0.305234  -0.305234  -0.305234
-0.0586276  -0.0586276  -0.0586276
-0.454512  -0.454512  -0.454512
0.435739  0.435739  0.435739
-0.91205  -0.91205  -0.91205
-0.541734  -0.541734  -0.541734
-0.141519  -0.141519  -0.141519
0.159275  0.159275  0.159275
0.214304  0.214304  0.214304
0.145194  0.145194  0.145194
-0.23971  -0.23971  -0.23971
-0.40072  -0.40072  -0.40072
-0.0976093  -0.0976093  -0.0976093
1.0397  1.0397  1.0397
0.686688  0.686688  0.686688
-0.817681  -0.817681  -0.817681
0.14784  0.14784  0.14784
0.118064  0.118064  0.118064
0.364412  0.364412  0.364412
-0.0911838  -0.0911838  -0.0911838
0.186823  0.186823  0.186823
-0.286338  -0.286338  -0.286338
0.4294  0.4294  0.4294
-0.190286  -0.190286  -0.190286
-0.100432  -0.100432  -0.100432
-0.162581  -0.162581  -0.162581
-0.0743967  -0.0743967  -0.0743967
-0.22931  -0.22931  -0.22931
-0.129263  -0.129263  -0.129263
-0.0813465  -0.0813465  -0.0813465
0.135434  0.135434  0.135434
-0.233213  -0.233213  -0.233213
0.427014  0.427014  0.427014
0.136635  0.136635  0.136635
0.0228609  0.0228609  0.0228609
0.443827  0.443827  0.443827
-0.211577  -0.211577  -0.211577
-0.0630803  -0.0630803  -0.0630803
-0.730663  -0.730663  -0.730663
-0.648574  -0.648574  -0.648574
-0.201878  -0.201878  -0.201878
0.188434  0.188434  0.188434
0.0945002  0.0945002  0.0945002
0.073415  0.073415  0.073415
0.114327  0.114327  0.114327
-0.548298  -0.548298  -0.548298
-0.0508146  -0.0508146  -0.0508146
-0.0479629  -0.0479629  -0.0479629
0.0921999  0.0921999  0.0921999
-1.91548  -1.91548  -1.91548
-1.3401  -1.3401  -1.3401
-0.0110208  -0.0110208  -0.0110208
0.273702  0.273702  0.273702
0.160682  0.160682  0.160682
0.232787  0.232787  0.232787
-0.296134  -0.296134  -0.296134
0.895438  0.895438  0.895438
0.162165  0.162165  0.162165
-0.591632  -0.591632  -0.591632
0.242847  0.242847  0.242847
-0.169203  -0.169203  -0.169203
-0.158076  -0.158076  -0.158076
0.168833  0.168833  0.168833
0.297904  0.297904  0.297904
-0.18823  -0.18823  -0.18823
-0.475959  -0.475959  -0.475959
0.544514  0.544514  0.544514
0.396258  0.396258  0.396258
-0.600428  -0.600428  -0.600428
-0.950854  -0.950854  -0.950854
0.534693  0.534693  0.534693
0.205723  0.205723  0.205723
-0.20362  -0.20362  -0.20362
0.0198861  0.0198861  0.0198861
0.0669827  0.0669827  0.0669827
-0.0643863  -0.0643863  -0.0643863
-0.277663  -0.277663  -0.277663
0.0522793  0.0522793  0.0522793
-0.192864  -0.192864  -0.192864
-0.513855  -0.513855  -0.513855
-0.0745866  -0.0745866  -0.0745866
-0.333894  -0.333894  -0.333894
-0.13027  -0.13027  -0.13027
-0.0297584  -0.0297584  -0.0297584
0.242385  0.242385  0.242385
-0.322691  -0.322691  -0.322691
0.0350851  0.0350851  0.0350851
-0.0361076  -0.0361076  -0.0361076
-0.0404524  -0.0404524  -0.0404524
0.345684  0.345684  0.345684
0.287809  0.287809  0.287809
0.816945  0.816945  0.816945
-0.0846534  -0.0846534  -0.0846534
0.156762  0.156762  0.156762
-0.156494  -0.156494  -0.156494
-0.0618219  -0.0618219  -0.0618219
0.312657  0.312657  0.312657
0.290451  0.290451  0.290451
-0.059786  -0.059786  -0.059786
-0.746975  -0.746975  -0.746975
0.190316  0.190316  0.190316
0.282669  0.282669  0.282669
-0.00811821  -0.00811821  -0.00811821
0.807804  0.807804  0.807804
-0.0642681  -0.0642681  -0.0642681
1.15565  1.15565  1.15565
1.57428  1.57428  1.57428
-0.0248436  -0.0248436  -0.0248436
0.250782  0.250782  0.250782
0.885413  0.885413  0.885413
-0.252774  -0.252774  -0.252774
-0.111102  -0.111102  -0.111102
-0.127882  -0.127882  -0.127882
0.00263514  0.00263514  0.00263514
-0.0765674  -0.0765674  -0.0765674
0.598774  0.598774  0.598774
0.00125236  0.00125236  0.00125236
0.105466  0.105466  0.105466
0.288141  0.288141  0.288141
0.0236996  0.0236996  0.0236996
0.170974  0.170974  0.170974
0.0885201  0.0885201  0.0885201
0.37172  0.37172  0.37172
0.0290966  0.0290966  0.0290966
0.156888  0.156888  0.156888
-0.380769  -0.380769  -0.380769
-0.120549  -0.120549  -0.120549
0.152711  0.152711  0.152711
-0.147197  -0.147197  -0.147197
0.154357  0.154357  0.154357
0.0212738  0.0212738  0.0212738
-0.424752  -0.424752  -0.424752
-0.353586  -0.353586  -0.353586
0.382988  0.382988  0.382988
0.0461927  0.0461927  0.0461927
-0.0279855  -0.0279855  -0.0279855
0.29377  0.29377  0.29377
-0.318564  -0.318564  -0.318564
-0.176247  -0.176247  -0.176247
0.065576  0.065576  0.065576
-0.355597  -0.355597  -0.355597
0.93507  0.93507  0.93507
-0.0280942  -0.0280942  -0.0280942
-0.0238819  -0.0238819  -0.0238819
-0.32393  -0.32393  -0.32393
-0.779923  -0.779923  -0.779923
0.0589163  0.0589163  0.0589163
0.347497  0.347497  0.347497
0.756756  0.756756  0.756756
0.134658  0.134658  0.134658
0.00970574  0.00970574  0.00970574
0.0952408  0.0952408  0.0952408
0.0952408  0.0952408  0.0952408
-0.0629715  -0.0629715  -0.0629715
-0.373789  -0.373789  -0.373789
0.29208  0.29208  0.29208
0.534487  0.534487  0.534487
0.185695  0.185695  0.185695
0.064788  0.064788  0.064788
-0.21353  -0.21353  -0.21353
-0.225404  -0.225404  -0.225404
0.0744292  0.0744292  0.0744292
0.0109116  0.0109116  0.0109116
0.225425  0.225425  0.225425
-0.13418  -0.13418  -0.13418
0.118926  0.118926  0.118926
0.0467646  0.0467646  0.0467646
-0.313527  -0.313527  -0.313527
-0.164772  -0.164772  -0.164772
0.312136  0.312136  0.312136
-0.398004  -0.398004  -0.398004
-0.159335  -0.159335  -0.159335
-0.161397  -0.161397  -0.161397
0.0987061  0.0987061  0.0987061
0.0775581  0.0775581  0.0775581
0.0239809  0.0239809  0.0239809
-0.478792  -0.478792  -0.478792
-0.110191  -0.110191  -0.110191
0.119173  0.119173  0.119173
-0.8839  -0.8839  -0.8839
0.0448814  0.0448814  0.0448814
-0.113687  -0.113687  -0.113687
0.371491  0.371491  0.371491
0.0506262  0.0506262  0.0506262
-0.000549235  -0.000549235  -0.000549235
0.216366  0.216366  0.216366
-0.149508  -0.149508  -0.149508
-0.0819718  -0.0819718  -0.0819718
0.390885  0.390885  0.390885
-0.228259  -0.228259  -0.228259
0.647591  0.647591  0.647591
1.08605  1.08605  1.08605
-0.195571  -0.195571  -0.195571
-0.0226389  -0.0226389  -0.0226389
-0.026626  -0.026626  -0.026626
-0.325606  -0.325606  -0.325606
-0.024297  -0.024297  -0.024297
-0.220135  -0.220135  -0.220135
0.270683  0.270683  0.270683
-0.0831165  -0.0831165  -0.0831165
-0.314049  -0.314049  -0.314049
-0.0116824  -0.0116824  -0.0116824
-0.269051  -0.269051  -0.269051
0.0418781  0.0418781  0.0418781
-0.511448  -0.511448  -0.511448
-0.266917  -0.266917  -0.266917
-0.283669  -0.283669  -0.283669
-0.00130538  -0.00130538  -0.00130538
-0.0294541  -0.0294541  -0.0294541
-0.459779  -0.459779  -0.459779
-0.319068  -0.319068  -0.319068
-0.113844  -0.113844  -0.113844
0.500989  0.500989  0.500989
0.138706  0.138706  0.138706
-0.757849  -0.757849  -0.757849
-0.0929137  -0.0929137  -0.0929137
-0.337673  -0.337673  -0.337673
0.206236  0.206236  0.206236
-0.241193  -0.241193  -0.241193
-0.338436  -0.338436  -0.338436
0.173049  0.173049  0.173049
0.147526  0.147526  0.147526
0.0471578  0.0471578  0.0471578
0.12182  0.12182  0.12182
-1.24821  -1.24821  -1.24821
-0.0253522  -0.0253522  -0.0253522
0.297452  0.297452  0.297452
0.453602  0.453602  0.453602
0.0474524  0.0474524  0.0474524
0.49129  0.49129  0.49129
0.344155  0.344155  0.344155
-1.5904  -1.5904  -1.5904
-0.380521  -0.380521  -0.380521
-1.33161  -1.33161  -1.33161
-0.141915  -0.141915  -0.141915
-0.25721  -0.25721  -0.25721
0.180142  0.180142  0.180142
0.475468  0.475468  0.475468
-0.336932  -0.336932  -0.336932
-0.0272199  -0.0272199  -0.0272199
-0.186934  -0.186934  -0.186934
0.0169348  0.0169348  0.0169348
1.63493  1.63493  1.63493
0.600223  0.600223  0.600223
-0.114408  -0.114408  -0.114408
0.00494209  0.00494209  0.00494209
0.125409  0.125409  0.125409
-0.0633108  -0.0633108  -0.0633108
0.207  0.207  0.207
0.459758  0.459758  0.459758
-0.0248077  -0.0248077  -0.0248077
-0.134746  -0.134746  -0.134746
-0.634266  -0.634266  -0.634266
0.933735  0.933735  0.933735
-0.0404468  -0.0404468  -0.0404468
-0.0404468  -0.0404468  -0.0404468
0.213077  0.213077  0.213077
0.108754  0.108754  0.108754
-0.341133  -0.341133  -0.341133
0.529374  0.529374  0.529374
-0.104522  -0.104522  -0.104522
0.848534  0.848534  0.848534
-0.0701159  -0.0701159  -0.0701159
-0.114194  -0.114194  -0.114194
-0.367996  -0.367996  -0.367996
0.0663436  0.0663436  0.0663436
0.471043  0.471043  0.471043
-0.55944  -0.55944  -0.55944
0.048751  0.048751  0.048751
-0.268072  -0.268072  -0.268072
-0.163144  -0.163144  -0.163144
0.111779  0.111779  0.111779
-0.801103  -0.801103  -0.801103
-0.0583922  -0.0583922  -0.0583922
-0.664326  -0.664326  -0.664326
0.0855774  0.0855774  0.0855774
-0.13932  -0.13932  -0.13932
-0.221431  -0.221431  -0.221431
0.0947311  0.0947311  0.0947311
-0.251068  -0.251068  -0.251068
-0.455372  -0.455372  -0.455372
-0.204199  -0.204199  -0.204199
-0.213887  -0.213887  -0.213887
-0.320911  -0.320911  -0.320911
-1.14735  -1.14735  -1.14735
-0.124885  -0.124885  -0.124885
0.0647305  0.0647305  0.0647305
0.390352  0.390352  0.390352
-0.314914  -0.314914  -0.314914
0.202593  0.202593  0.202593
-0.64105  -0.64105  -0.64105
0.294087  0.294087  0.294087
-0.0292079  -0.0292079  -0.0292079
0.031754  0.031754  0.031754
-0.801448  -0.801448  -0.801448
-0.487455  -0.487455  -0.487455
-0.182994  -0.182994  -0.182994
0.121291  0.121291  0.121291
0.0609063  0.0609063  0.0609063
0.242724  0.242724  0.242724
0.517096  0.517096  0.517096
-0.0991669  -0.0991669  -0.0991669
0.320117  0.320117  0.320117
-0.010723  -0.010723  -0.010723
-0.154543  -0.154543  -0.154543
0.755858  0.755858  0.755858
0.26534  0.26534  0.26534
0.762413  0.762413  0.762413
-0.667559  -0.667559  -0.667559
-0.106067  -0.106067  -0.106067
-0.0423684  -0.0423684  -0.0423684
0.208478  0.208478  0.208478
-0.355297  -0.355297  -0.355297
-0.236171  -0.236171  -0.236171
0.643504  0.643504  0.643504
-0.0170407  -0.0170407  -0.0170407
-0.576397  -0.576397  -0.576397
0.0278717  0.0278717  0.0278717
0.319414  0.319414  0.319414
-0.0974971  -0.0974971  -0.0974971
1.05367  1.05367  1.05367
0.296886  0.296886  0.296886
-0.338909  -0.338909  -0.338909
0.266085  0.266085  0.266085
-0.0472622  -0.0472622  -0.0472622
-0.352074  -0.352074  -0.352074
-1.71141  -1.71141  -1.71141
-0.268005  -0.268005  -0.268005
0.0803029  0.0803029  0.0803029
-0.319312  -0.319312  -0.319312
0.0581734  0.0581734  0.0581734
0.576628  0.576628  0.576628
0.0897751  0.0897751  0.0897751
0.237438  0.237438  0.237438
0.165288  0.165288  0.165288
0.0514685  0.0514685  0.0514685
0.147122  0.147122  0.147122
0.116824  0.116824  0.116824
0.235033  0.235033  0.235033
-0.103991  -0.103991  -0.103991
-1.0776  -1.0776  -1.0776
-0.0561363  -0.0561363  -0.0561363
0.149802  0.149802  0.149802
-0.122402  -0.122402  -0.122402
-0.608085  -0.608085  -0.608085
-0.21888  -0.21888  -0.21888
0.0477161  0.0477161  0.0477161
0.160376  0.160376  0.160376
0.353792  0.353792  0.353792
1.02302  1.02302  1.02302
0.047369  0.047369  0.047369
-0.19066  -0.19066  -0.19066
0.0407386  0.0407386  0.0407386
-0.00830636  -0.00830636  -0.00830636
0.0240314  0.0240314  0.0240314
-0.38031  -0.38031  -0.38031
-0.205327  -0.205327  -0.205327
0.0170684  0.0170684  0.0170684
-0.304821  -0.304821  -0.304821
-0.155555  -0.155555  -0.155555
0.0698129  0.0698129  0.0698129
-0.0511717  -0.0511717  -0.0511717
1.09548  1.09548  1.09548
0.0313599  0.0313599  0.0313599
0.00951175  0.00951175  0.00951175
1.21471  1.21471  1.21471
0.196687  0.196687  0.196687
-0.12974  -0.12974  -0.12974
-0.387064  -0.387064  -0.387064
-0.18593  -0.18593  -0.18593
-0.264801  -0.264801  -0.264801
0.184259  0.184259  0.184259
-0.054112  -0.054112  -0.054112
-0.294168  -0.294168  -0.294168
-0.0330876  -0.0330876  -0.0330876
0.307067  0.307067  0.307067
0.173414  0.173414  0.173414
-0.236541  -0.236541  -0.236541
0.0136969  0.0136969  0.0136969
-0.179377  -0.179377  -0.179377
-0.607995  -0.607995  -0.607995
0.381686  0.381686  0.381686
0.0585563  0.0585563  0.0585563
0.00409735  0.00409735  0.00409735
0.0593296  0.0593296  0.0593296
-0.0710395  -0.0710395  -0.0710395
-0.297268  -0.297268  -0.297268
0.0888115  0.0888115  0.0888115
-0.698865  -0.698865  -0.698865
-0.249922  -0.249922  -0.249922
-0.196799  -0.196799  -0.196799
0.0745204  0.0745204  0.0745204
-0.588039  -0.588039  -0.588039
-0.00124055  -0.00124055  -0.00124055
0.391369  0.391369  0.391369
0.137287  0.137287  0.137287
-0.065402  -0.065402  -0.065402
-0.198715  -0.198715  -0.198715
0.341592  0.341592  0.341592
-0.527087  -0.527087  -0.527087
-0.370299  -0.370299  -0.370299
-0.30905  -0.30905  -0.30905
-0.516881  -0.516881  -0.516881
-0.0645405  -0.0645405  -0.0645405
-0.258668  -0.258668  -0.258668
-0.952549  -0.952549  -0.952549
0.190261  0.190261  0.190261
-0.434922  -0.434922  -0.434922
-0.0956645  -0.0956645  -0.0956645
-0.46503  -0.46503  -0.46503
0.154135  0.154135  0.154135
-0.0124294  -0.0124294  -0.0124294
-0.213519  -0.213519  -0.213519
0.179859  0.179859  0.179859
0.117264  0.117264  0.117264
0.0935326  0.0935326  0.0935326
0.0563815  0.0563815  0.0563815
0.0309586  0.0309586  0.0309586
-0.194239  -0.194239  -0.194239
0.00490402  0.00490402  0.00490402
0.051655  0.051655  0.051655
-0.0478602  -0.0478602  -0.0478602
0.0118749  0.0118749  0.0118749
0.0380893  0.0380893  0.0380893
0.183536  0.183536  0.183536
0.0378672  0.0378672  0.0378672
0.0862593  0.0862593  0.0862593
-0.974048  -0.974048  -0.974048
-0.0757726  -0.0757726  -0.0757726
0.154104  0.154104  0.154104
-0.180601  -0.180601  -0.180601
0.216212  0.216212  0.216212
0.124475  0.124475  0.124475
-0.61216  -0.61216  -0.61216
0.474327  0.474327  0.474327
0.381664  0.381664  0.381664
-0.240718  -0.240718  -0.240718
-1.39773  -1.39773  -1.39773
-0.401144  -0.401144  -0.401144
-0.166176  -0.166176  -0.166176
-0.291685  -0.291685  -0.291685
-0.00753146  -0.00753146  -0.00753146
-0.676312  -0.676312  -0.676312
-0.0229063  -0.0229063  -0.0229063
0.429737  0.429737  0.429737
-0.217571  -0.217571  -0.217571
-1.25985  -1.25985  -1.25985
0.347678  0.347678  0.347678
-0.0178493  -0.0178493  -0.0178493
-0.734572  -0.734572  -0.734572
0.558682  0.558682  0.558682
-0.550036  -0.550036  -0.550036
0.0579445  0.0579445  0.0579445
-0.078088  -0.078088  -0.078088
-0.263656  -0.263656  -0.263656
0.206916  0.206916  0.206916
-0.0854396  -0.0854396  -0.0854396
-0.56176  -0.56176  -0.56176
0.426784  0.426784  0.426784
0.630584  0.630584  0.630584
-0.151194  -0.151194  -0.151194
0.0323473  0.0323473  0.0323473
0.293047  0.293047  0.293047
0.633616  0.633616  0.633616
-0.0813922  -0.0813922  -0.0813922
-0.0476725  -0.0476725  -0.0476725
0.304985  0.304985  0.304985
-0.136459  -0.136459  -0.136459
-0.67905  -0.67905  -0.67905
0.317012  0.317012  0.317012
0.117169  0.117169  0.117169
0.161842  0.161842  0.161842
0.133342  0.133342  0.133342
-0.584327  -0.584327  -0.584327
0.0162076  0.0162076  0.0162076
0.0162076  0.0162076  0.0162076
0.134448  0.134448  0.134448
-0.259111  -0.259111  -0.259111
-0.638604  -0.638604  -0.638604
-0.912146  -0.912146  -0.912146
0.37524  0.37524  0.37524
0.296519  0.296519  0.296519
0.869882  0.869882  0.869882
0.0419944  0.0419944  0.0419944
0.129071  0.129071  0.129071
-0.498313  -0.498313  -0.498313
0.0129113  0.0129113  0.0129113
0.648078  0.648078  0.648078
-0.176751  -0.176751  -0.176751
0.465337  0.465337  0.465337
-0.364983  -0.364983  -0.364983
-0.549595  -0.549595  -0.549595
-0.107767  -0.107767  -0.107767
-0.943414  -0.943414  -0.943414
-0.0394658  -0.0394658  -0.0394658
0.0590873  0.0590873  0.0590873
-1.05438  -1.05438  -1.05438
0.885327  0.885327  0.885327
0.00218594  0.00218594  0.00218594
-0.360408  -0.360408  -0.360408
-0.0892932  -0.0892932  -0.0892932
-0.0696161  -0.0696161  -0.0696161
0.111572  0.111572  0.111572
0.205069  0.205069  0.205069
-0.0795503  -0.0795503  -0.0795503
-0.110625  -0.110625  -0.110625
-0.463065  -0.463065  -0.463065
0.376186  0.376186  0.376186
-0.458684  -0.458684  -0.458684
-0.112224  -0.112224  -0.112224
0.326582  0.326582  0.326582
0.338076  0.338076  0.338076
0.0240662  0.0240662  0.0240662
0.0781127  0.0781127  0.0781127
-0.297573  -0.297573  -0.297573
-0.831233  -0.831233  -0.831233
0.095094  0.095094  0.095094
0.861296  0.861296  0.861296
-0.0348058  -0.0348058  -0.0348058
-0.264373  -0.264373  -0.264373
0.235661  0.235661  0.235661
0.732562  0.732562  0.732562
0.0375961  0.0375961  0.0375961
-0.18597  -0.18597  -0.18597
0.168402  0.168402  0.168402
0.0871222  0.0871222  0.0871222
0.0423243  0.0423243  0.0423243
-0.154764  -0.154764  -0.154764
0.00744509  0.00744509  0.00744509
-0.0257817  -0.0257817  -0.0257817
0.158443  0.158443  0.158443
0.111322  0.111322  0.111322
1.06746  1.06746  1.06746
-0.455649  -0.455649  -0.455649
0.2796  0.2796  0.2796
-0.643299  -0.643299  -0.643299
0.536684  0.536684  0.536684
-0.17995  -0.17995  -0.17995
0.103958  0.103958  0.103958
-0.990792  -0.990792  -0.990792
-0.378701  -0.378701  -0.378701
-0.319977  -0.319977  -0.319977
0.253995  0.253995  0.253995
-0.129203  -0.129203  -0.129203
-0.343865  -0.343865  -0.343865
-0.0181995  -0.0181995  -0.0181995
-0.261694  -0.261694  -0.261694
-0.141298  -0.141298  -0.141298
-0.0577736  -0.0577736  -0.0577736
0.136036  0.136036  0.136036
0.0177391  0.0177391  0.0177391
-0.0952918  -0.0952918  -0.0952918
-0.0427778  -0.0427778  -0.0427778
0.179963  0.179963  0.179963
0.300433  0.300433  0.300433
0.116335  0.116335  0.116335
-0.187293  -0.187293  -0.187293
0.518732  0.518732  0.518732
-0.0856021  -0.0856021  -0.0856021
0.139316  0.139316  0.139316
0.247258  0.247258  0.247258
