-0.251899    1.14289    1.65984
-1.67332    0.54519    0.197282
-0.862766    -0.233152    0.152088
-0.0189407    0.0100523    -0.824769
1.44289    -0.501244    -1.51173
-0.978092    0.373415    0.783153
-0.569162    -0.622116    -0.469584
0.328716    0.203431    0.704481
0.408218    0.120345    -0.339481
-0.463716    0.766217    -0.587023
0.359406    -1.52222    -1.31967
0.609515    -0.683104    -1.42975
2.56751    -1.5084    -0.555287
1.86278    -0.310744    0.248734
-0.4418    -0.56679    -0.127793
0.356724    -0.16396    -0.651841
1.91157    -0.141279    2.19016
-0.0155852    -1.32709    1.90491
0.0447191    -2.94412    2.33038
-2.07009    -0.335899    0.525233
-1.71505    -2.78342    1.09928
-1.12047    -1.04902    0.912671
1.07898    -0.790056    0.170237
-0.933283    -0.486931    -1.33964
-2.13938    1.31831    -0.676227
-2.67072    0.792181    -0.907242
-3.05132    -0.237241    -0.563528
-1.97081    -0.645125    1.38634
-0.633116    -1.12021    2.18553
0.853572    0.578915    -1.86899
-1.27885    -0.224446    -0.481227
-1.53909    0.150344    0.471233
-0.0423229    0.375486    1.19806
-0.768301    0.0408096    -0.13001
-0.749867    -0.0730679    -0.117973
0.348742    -0.677493    0.230044
-0.737874    -0.561875    0.778242
-1.17288    -0.140799    2.57386
0.981463    -0.132109    -0.143911
0.0512945    1.90832    0.313462
0.0503237    1.08262    -0.0553438
-0.336486    2.00119    0.200022
0.136454    0.218046    -0.491778
1.93677    0.125467    -0.654931
0.428182    0.594143    -0.804702
0.487668    1.08651    -0.20922
1.19813    0.820817    0.335449
0.0816477    0.674588    1.49769
-0.0880697    0.572812    0.392561
0.105318    -0.232328    -0.252935
0.371945    -0.01464    0.389255
-0.487297    0.115613    0.891509
0.257893    0.183519    0.55117
0.605686    -0.110945    -0.171639
0.278987    -0.126369    -1.71924
-0.229895    1.02693    0.0257545
-1.11797    0.98592    0.071383
-1.22492    2.59845    0.451097
-1.5879    2.34442    0.0701553
0.640967    0.166804    -1.22876
0.38005    0.122583    -0.488634
-0.210702    -1.02929    -0.497532
-1.2973    0.374475    -1.04478
0.419125    1.33277    -0.657641
-0.370438    0.252674    -0.660161
-0.38202    -0.998313    -0.44219
-0.637303    -1.16265    -0.550584
0.453378    0.391566    -0.776421
0.367107    0.230566    0.716933
0.941066    -0.560759    0.0853663
0.388703    1.4952    0.00543832
-0.85123    0.379553    0.725841
1.80284    0.450501    0.178239
1.08257    1.33734    -0.796103
-1.54665    1.86137    1.09485
-2.45078    2.41038    -2.53816
-3.10518    -0.0530019    -2.31151
-0.402221    -0.505194    -1.62563
1.33152    -0.461099    0.562768
1.14509    0.119889    0.706095
1.42806    -1.8766    -0.358049
1.59109    -0.903194    -1.49852
-0.188203    -0.279707    0.898452
-0.474671    0.299625    -0.40848
0.196694    -0.714165    -0.6219
-0.403179    0.445285    0.262672
0.405343    1.6376    0.560001
-0.404189    1.21401    1.16504
-0.553357    -1.75858    -0.534924
-0.412858    1.12054    -0.254452
1.32089    0.300576    -0.309455
0.0625822    0.0416369    1.23695
0.535582    0.849406    0.446097
0.838681    -0.447649    -0.675603
1.95558    0.816202    -0.702465
0.786778    -0.724995    -0.491821
-0.665667    0.108396    -1.19353
1.32333    -0.41791    0.523411
0.404917    -0.419762    -0.282769
-2.17125    0.0854821    -0.722856
-1.64077    0.727045    -1.15892
-0.608015    2.79334    -0.0717282
0.639758    0.782901    0.0692832
-0.569019    -0.546959    0.467309
0.678446    0.91185    0.6686
0.267029    -0.0612045    0.0718356
0.671327    0.981098    -0.473653
-2.24528    1.07995    -1.32657
-2.13965    -1.07478    -1.70415
-1.5879    -2.42509    -1.94934
-2.19497    -3.80411    0.176026
0.499122    -0.170066    -0.904242
-0.557183    -0.458773    -0.434003
-0.266056    -0.156884    -0.21014
0.236175    -0.242046    -0.540555
2.39642    0.86104    0.979762
0.534182    0.635455    0.188331
-0.623393    1.49502    1.90492
-0.398712    -0.412519    1.28156
-1.04687    -0.751199    2.91196
0.962217    -0.509647    0.861517
0.363247    -0.0635322    0.980777
1.06656    0.224968    -0.715431
1.10788    -0.220199    0.329464
0.100609    -0.365483    -0.102441
-0.608233    0.71656    -0.502936
0.255309    0.0110073    -0.257441
-1.36938    0.0901617    -0.59955
-0.426889    0.892629    1.65097
0.00837216    0.353224    -0.157519
0.910276    0.827567    -0.669121
0.0622605    0.741713    -0.45671
-0.901972    0.236415    -1.75982
-0.189205    0.0252885    -0.151721
0.254457    0.230633    0.913679
1.57109    -0.100105    0.901153
-1.23844    1.13639    -0.810565
-1.57462    0.138085    -0.0961767
-0.670799    0.859153    -1.60923
1.40796    -1.30095    -0.204019
0.917945    -1.42663    -0.602347
0.732442    -0.6939    1.64124
0.288177    0.0792095    1.70922
-0.928567    0.965677    -0.284738
-1.48992    0.652764    1.4242
0.652108    0.642427    -0.352667
-0.120173    -0.554835    -1.25876
0.0196862    0.114304    -0.0355299
0.0196862    0.114304    -0.0355299
0.261486    0.850517    0.151765
0.0105411    0.0665422    0.488767
-1.02434    2.01134    -0.96725
0.734867    0.367242    0.768199
-0.0941383    1.19932    -0.313999
-1.71799    -1.43076    -0.245055
-0.650355    -0.665207    -0.794322
1.17096    -0.332415    -0.551606
0.648941    0.765077    0.0521402
0.383331    0.267711    -0.236241
-0.941232    0.520656    0.0678381
-0.554046    0.0723459    2.35283
0.404458    -0.678123    0.0345156
1.89568    -0.714784    1.04624
1.62247    1.37898    0.536036
2.38283    2.04531    0.996629
-0.242038    0.256675    -0.232418
0.0255221    0.254913    -0.00891979
0.231053    0.898474    -0.262468
0.311631    0.113985    0.190152
-0.877353    2.18253    0.278278
-1.10225    0.737248    -0.663416
-0.552242    0.0954636    1.06042
-0.397695    -1.46177    0.913307
2.3211    -2.68377    0.828474
1.29185    -1.70024    0.061417
-0.365082    -0.515719    1.71036
0.234748    -1.19239    -0.941377
-1.42461    -0.0245523    -0.199552
-0.483869    -0.457539    -0.80618
0.342763    -0.418825    -0.0772429
0.391712    0.44514    1.00598
-0.128651    -0.355539    0.806607
1.51498    1.12678    0.0950761
-0.16035    0.289356    -2.03018
-0.0196194    -0.8324    -1.02748
-0.0712208    -0.35491    0.60761
-1.67632    0.556268    0.994061
1.49506    -0.69835    1.15414
0.666549    0.335036    -0.085289
1.20082    -0.411164    -0.233484
-0.692879    0.455969    0.944123
-0.759445    0.139496    -0.888354
-0.215823    0.224016    -0.287006
0.892997    -0.27468    0.00207563
1.46373    -0.666753    -1.17615
-0.710819    0.892708    0.245351
2.60158    -0.454753    -0.597833
2.94495    1.78229    -1.52384
3.04897    1.59959    -1.03166
3.93395    0.512798    -0.272119
1.01362    1.36387    0.791633
-0.963386    2.51669    1.29112
0.910413    2.15244    0.874714
0.854363    -0.424874    1.02897
0.305232    0.266928    -0.116779
0.65615    -0.920743    -0.123775
0.760236    0.0488771    1.90888
1.21102    -0.325852    -0.281839
1.04677    0.777418    -0.920529
0.951178    -0.200263    0.819101
0.0859677    -0.0228773    1.15116
0.172329    -0.0880538    -0.403078
1.68736    -0.0980967    0.313042
-0.185495    -0.223166    0.517006
-0.856464    0.505118    0.983665
-0.0287041    -0.53935    0.735989
0.316913    1.10027    1.21462
0.542716    1.10093    1.74687
-0.330918    -0.373631    0.326934
-1.16219    -1.27003    -0.791534
0.296472    -0.072243    0.0731222
-0.752148    -0.56898    0.203788
-0.338552    0.842014    0.752453
0.735954    0.577714    0.167122
-0.124616    0.18312    0.342357
-1.51174    -0.0315981    -0.460164
0.167215    -0.157817    -0.687622
2.12884    -0.80159    -0.77142
0.580337    -0.785914    1.08534
-1.04851    -0.308504    0.134575
-0.354995    -1.31234    0.142193
0.162624    1.18257    -0.110681
-0.925426    1.49219    0.513883
-1.12239    1.16773    0.546126
1.16364    0.270785    -1.48721
1.02383    1.02536    -0.260399
1.31639    -0.0241994    -0.936674
-0.244035    0.289731    1.0921
-0.731687    -0.205387    1.58973
-1.57264    -1.58728    1.76533
1.16105    -0.350488    0.190713
0.368536    0.604492    -0.0744632
0.421544    1.73053    2.08843
-0.116194    -0.0816503    0.547667
0.287063    -1.03419    -1.07745
-2.19629    -0.0307932    -0.268794
-0.490423    2.03312    1.2455
0.519382    1.48222    1.90736
1.37189    -0.0575585    -0.616253
0.558537    0.411038    0.142477
0.0051934    0.00671581    0.369948
-0.56601    0.732847    -1.12491
0.395158    0.506728    -0.387893
-1.31535    0.0763657    -0.00154288
0.0996522    -0.1846    0.365607
0.148451    0.0451767    0.809111
0.210213    -0.142824    -0.191278
-0.415087    -0.166571    0.132975
1.07983    -1.90338    0.6578
2.17489    -2.95531    -1.0128
0.650745    0.0267629    0.448317
0.294575    -0.0876484    -0.418582
-1.52046    1.36828    -0.76271
-1.66279    1.4103    1.46358
-1.96782    2.86084    3.77206
1.08261    1.06875    3.96032
0.0332465    0.912454    1.27246
-0.308594    -0.163599    0.971278
0.107932    0.00543586    1.1802
-0.290632    -0.249147    0.0191358
-0.395209    -0.806522    -0.600073
0.805787    0.909292    -0.196862
0.646555    2.08677    -1.94957
0.873255    1.01075    -0.308801
-1.65572    1.15519    -1.12646
-0.174837    0.492007    -0.0461622
-1.41122    1.24655    -0.486507
-2.94685    0.486616    -0.10152
-0.394379    -2.06834    -1.48838
-0.580997    -0.995595    0.0465133
-0.00200051    -0.561255    -0.811168
-0.117696    -2.55266    -0.711239
-0.000737302    0.49745    -0.448393
0.517231    -0.778122    1.21021
-0.311362    -1.47442    0.354899
-0.586617    -1.30011    -0.450163
0.307078    0.155513    0.314821
2.27826    1.26263    -0.448809
-0.119755    0.046998    -0.0856262
-0.681983    0.709391    -0.742325
-0.682691    1.56513    0.749906
-0.123935    0.376288    0.345146
-0.975421    -1.84672    -1.28169
-0.792128    -3.04324    0.131338
-0.000743199    -2.58567    -1.00393
0.592112    -0.312793    -0.0150176
1.80992    -1.09134    1.39252
-0.0708505    -0.0836818    0.871802
0.0490372    0.0190681    0.181059
-0.674405    -0.109865    0.936918
0.00749317    -0.164623    -0.792524
0.958976    1.37756    -0.36658
0.495553    1.88782    0.909688
0.959664    -0.00374166    -0.466499
-0.0315137    0.702843    2.4676
0.568128    -0.622872    2.99356
0.0123275    -1.30316    1.11092
0.984807    0.111876    -0.562485
0.154242    -1.80695    -0.682979
-0.196803    -0.695968    0.13428
0.32234    0.624586    -1.19017
0.414674    -1.1231    -0.328183
0.168968    -1.70292    1.34538
0.183141    0.317521    -0.0344235
-1.12075    1.41744    -0.226046
-0.651315    0.141695    -1.1669
-0.452623    1.83399    -0.769764
0.279052    -0.383903    0.372023
0.89948    -0.139443    0.221421
0.199454    0.519049    0.865641
1.34639    -0.695965    2.25591
-0.404229    -0.334844    0.823164
0.56831    -0.516681    0.627727
0.75788    0.245712    0.625128
-0.176798    -0.12691    1.04174
-0.241922    -0.123737    1.1326
-0.216855    -0.724791    0.892916
-0.753588    -0.242257    0.0645552
-1.36956    -0.8911    1.40289
-1.86883    -2.20401    0.177751
-0.533837    -1.77226    3.17935
-1.86095    0.438673    -0.353867
-0.686904    0.399377    1.52744
-1.68147    -0.847115    0.536423
0.446321    -0.0752182    -0.00929088
-0.909073    -1.50146    0.348617
-1.00894    -0.533849    0.865055
-0.817737    -0.683386    1.79607
-0.494651    0.800618    -0.238865
1.25074    -0.097811    -1.13752
-0.167083    0.103097    1.00869
-2.31427    -0.572032    0.654868
0.590048    0.485573    0.00446023
-0.239469    -0.461819    -0.551617
-0.481495    -0.784895    -1.36131
-3.1582    0.0336871    -1.46464
-1.77103    1.11136    -1.54899
-1.16887    0.092279    0.508164
0.284647    -0.304591    -0.427838
-0.553603    1.14025    0.975231
0.493877    0.152041    -0.228729
-0.439918    0.217819    -0.029184
-0.872829    0.115476    0.539417
-0.600562    0.847467    0.0859848
-0.915174    -0.566191    0.869872
-1.62979    -0.504703    -1.13643
-0.0321793    1.79115    -0.0628231
0.616241    0.803005    0.754169
0.102712    -0.173056    0.0507587
-0.878703    0.191304    -0.589539
0.831098    -0.222574    -0.609414
-0.571785    -0.918234    0.483522
0.0456876    1.10079    0.454031
-0.0757549    0.171023    0.179889
-0.646079    -0.486834    0.367151
-0.644722    -0.696034    -0.319047
-1.4273    0.465157    -0.460939
-0.157953    -1.41543    0.183743
1.23993    0.670094    1.62244
-0.294903    -2.18699    -1.07048
2.06021    0.318163    0.324214
0.976018    1.19184    0.272259
0.134894    2.51229    -0.319101
1.30688    2.28434    0.687087
0.306972    -0.176701    0.794925
-0.780782    -0.218424    -0.278405
0.938773    0.483919    -0.094976
0.00261149    0.551541    -0.0781459
0.183491    -0.370544    -0.148204
-0.585148    0.399676    0.341874
0.477869    -0.591968    0.0412945
0.197918    1.05014    -1.92701
0.167002    -0.497105    -2.02415
0.56103    0.492596    1.65191
0.607376    0.0450802    0.524279
0.118211    -0.361014    1.29583
0.368481    -0.0830884    0.717448
-0.0989052    -0.958532    -0.313147
1.08395    -0.432944    -0.493268
1.82445    -0.304788    -0.154464
-0.714682    -0.209782    -0.526998
-1.20092    0.265431    1.46983
-0.866094    0.731435    0.528188
-1.66165    0.49335    0.679702
-1.58618    -0.935144    2.54193
-3.30777    1.07302    0.083857
-1.56503    0.235373    0.318586
-1.01415    0.0054732    -0.410064
0.011447    0.126917    0.925691
0.610095    0.199639    1.97358
-0.280018    1.46569    -0.0343014
0.521175    -0.837238    1.14776
0.776051    -0.222033    -0.148662
1.74669    -3.12257    -0.526359
-0.887515    -1.97718    -1.7887
-0.986454    0.390354    -0.382138
0.197107    -0.244097    0.199279
-0.0297763    0.458451    -0.123392
-0.135436    0.130926    -0.28291
2.07053    1.29597    0.290427
0.559731    -0.509488    -1.22199
0.0518374    -1.63548    -0.528136
-1.87003    -1.6988    -0.245182
-0.132249    -0.461124    -0.064897
0.509782    -0.737791    -0.905799
-0.0218361    0.548202    -0.570378
0.214748    -0.0588031    0.508326
-0.252543    0.713925    1.85679
0.368859    0.189489    0.0254183
-0.041473    -0.321268    -0.114519
1.70658    -1.17966    1.40624
0.7596    -0.238606    2.01435
0.303826    0.662708    1.19736
0.346541    -0.118721    0.70205
1.49583    0.0438339    1.60725
0.0962946    -0.360179    1.13134
0.304435    -0.630575    0.441624
0.789877    0.0767821    0.208229
0.657401    0.0951297    0.85668
-0.132171    0.203763    0.243345
0.241115    -0.0212748    -0.104713
0.241115    -0.0212748    -0.104713
-0.103495    -0.0386436    -0.690482
1.73745    0.815773    -1.33967
-0.151651    1.06823    -0.210303
-0.357524    0.0517752    -0.411011
-1.08315    0.164126    -1.56688
-1.22128    0.483588    0.0290329
-0.398393    0.69883    -0.0385508
-0.687051    -0.0736604    -0.186399
0.497761    -0.465103    -0.493343
-0.255078    0.14379    -0.179961
0.243796    0.477602    0.219724
-1.62557    0.718405    0.192126
-1.95697    1.66971    -0.237724
0.945576    0.218799    0.793365
2.58486    0.243021    -1.86767
1.34498    -0.225361    -0.131182
0.593804    -1.02658    1.04249
0.841138    -0.386207    0.534074
0.287005    -0.154558    0.467687
1.46234    -1.11831    0.557349
-0.297354    -0.41898    1.6162
1.69812    -0.23902    2.68889
1.11941    -0.308191    0.297833
0.039726    -0.447647    -0.16162
1.00473    -0.170632    -0.409848
0.285299    1.18386    0.807492
-0.354412    -0.778794    -1.38746
-1.07204    -1.34952    -2.62234
-0.804431    -0.764114    -1.8698
0.683347    -1.69409    -0.302206
-0.0818385    -1.05884    0.666879
0.190016    0.408764    1.21147
0.18296    0.0680962    1.14091
-0.456063    -0.235213    0.534107
-0.302172    0.0498619    -0.431205
-0.27828    0.267925    0.736081
0.393853    0.145048    0.103333
0.628693    -1.32472    1.99246
-0.100184    -0.534885    1.31695
0.265854    0.516667    -0.576975
0.215436    -0.165206    0.166001
0.778067    -0.182948    -0.215955
-0.273866    0.642937    0.192045
0.0146264    0.168609    0.315898
-0.657424    -0.239702    0.162622
-1.03919    0.0654623    -0.192932
-0.07553    -1.2733    -0.158956
-0.571681    -1.48184    -0.50408
0.395644    -2.202    -0.235217
0.735471    -0.130973    0.247081
0.234032    0.593186    -0.197421
-0.351359    0.309843    -0.0124598
-1.51254    0.200175    -0.414819
-0.76399    0.802537    0.00237233
-1.06376    0.126504    1.57573
-0.928389    0.98772    0.431695
0.305619    0.357462    0.468196
0.735453    -0.0239552    1.09447
-0.0779275    0.100844    -0.992998
-0.667988    0.0110353    -0.238941
-0.35497    0.620231    0.471278
0.669284    -0.872291    -0.694956
0.01212    0.723916    1.19168
-0.599715    -1.18964    1.30215
-0.2719    -0.783218    -0.421506
0.0864582    -0.302357    -0.0568615
-0.162853    0.136133    -0.279935
-1.22088    0.187006    0.550019
0.39357    0.586137    1.98913
-0.394206    0.13314    0.0224319
-0.221883    0.367531    1.25934
-0.310053    0.592111    0.457242
1.03541    -0.790977    0.484083
0.68365    0.496884    0.97519
-0.783404    0.989972    0.532302
-1.10652    0.0688066    -0.791163
-0.537533    -0.0687835    -0.214598
0.743427    -0.422727    -0.438105
1.44165    -1.37206    -0.638881
3.28505    -1.70112    0.636846
2.5488    -0.0192193    1.46382
2.4499    0.12101    2.14123
3.39085    0.0598248    -1.52726
1.64554    0.51089    -0.857234
0.748898    0.867631    -0.399722
-1.44745    1.55507    -2.05049
-0.772733    1.78646    -0.578115
-1.00824    -0.0578537    -0.43073
-0.839997    0.284427    -0.0217361
-0.218182    0.518093    0.349721
0.0370095    0.070245    -0.313681
-1.04216    -1.07429    0.290447
-0.335804    -0.373375    -1.05588
-0.285202    0.148283    -0.0822043
0.354227    0.0737066    -0.26642
-0.010782    0.0612095    -0.126452
-0.010782    0.0612095    -0.126452
-0.010782    0.0612095    -0.126452
-0.542078    -0.936899    -0.808352
1.71676    -0.57314    0.499114
-0.159606    -1.56676    1.36209
0.392001    0.135873    1.96401
-1.9243    -0.345999    -0.196301
-2.15001    0.854684    -1.29533
0.0972375    -0.315308    -1.50614
0.616724    0.676824    0.922686
0.328974    0.453868    1.08939
-0.0153614    0.438747    0.561436
0.343575    -0.0694545    0.022294
0.633984    -0.448354    -0.635395
-0.311573    -1.09746    0.409601
-0.127876    0.0124385    0.66798
-0.662017    -0.940615    1.37625
-0.685415    0.124219    2.58752
0.294375    1.29809    0.299001
-0.316718    1.11596    0.691573
0.66027    1.26236    -0.553605
-0.896713    -0.172598    0.319845
-0.0375429    -0.573997    -0.313247
-0.808642    0.276469    0.0551553
-1.24236    0.888508    -0.235124
-1.07664    0.133919    -0.0587264
0.00245425    0.411327    -0.588463
-0.350799    0.854227    -0.00455211
-0.246684    2.14782    0.0477085
-1.49749    2.00572    -1.09651
-0.683039    0.248407    -1.26007
-0.175584    -0.788989    2.09282
-0.274741    -0.448644    1.98236
-0.765659    1.26276    -0.961142
-0.644278    0.290505    0.544272
-0.0280961    -0.0734947    -0.0146504
-1.65643    -0.909929    -0.751196
-1.16569    -0.131938    0.684821
-0.802687    -0.905647    0.781192
-0.339366    -0.187893    -0.159688
-0.511002    0.64199    -0.169017
-0.952423    0.11865    0.820529
0.13675    -1.36808    0.3311
0.387991    -0.0639195    -0.210564
0.311895    -0.293479    -0.0315938
0.459577    -0.753976    -0.251187
0.019294    0.342416    0.151637
0.198017    0.0226548    -0.0641015
0.147637    0.194547    -0.365131
-0.193604    0.540873    -0.746936
-0.11246    0.338122    -0.469487
-1.57593    -0.310363    -0.290174
-0.938821    1.19745    -1.12136
0.972726    -0.731941    -2.00272
-1.18113    0.978111    1.28238
-0.921819    -0.349587    0.160568
-0.909215    0.461615    0.321514
0.0927372    -0.299095    -0.447108
0.186902    -0.458665    0.927768
0.261266    1.54006    -0.010985
0.024573    -0.150724    0.617227
0.493634    -0.238046    0.153858
1.10724    -0.536581    -1.34005
0.777137    1.82603    1.42275
-1.48879    -1.83524    -0.275181
-0.266151    -2.42816    -0.264077
0.0478125    -0.554245    -0.108014
0.400074    0.556595    -0.373503
0.257688    -0.271746    -0.626658
0.700594    -1.46846    -0.433289
2.00954    -2.92623    0.779847
1.08167    -0.862802    1.57582
0.532251    -0.0543418    -0.143489
0.224197    -1.16151    1.19504
0.48715    -1.51006    -1.27493
-0.910052    -1.0454    -0.810975
0.248247    -0.341288    0.0942093
0.241967    0.302936    -0.953476
0.306148    -0.566989    0.277886
-0.0934328    -0.306698    1.54929
1.31691    -0.427077    0.839001
0.806632    -1.43036    -0.964473
0.332764    -0.554566    0.0478072
-0.564731    -1.77353    0.733736
-1.55561    -0.39821    -0.546966
-0.312642    0.429163    0.21106
0.825461    0.30661    -1.32901
0.237793    0.224945    0.863752
1.00882    -0.478504    -0.33999
0.481231    -0.332099    0.140268
-0.279841    0.565226    0.301573
-0.167392    -0.27365    0.313318
0.64304    1.42075    -0.696891
0.158167    -0.62954    -0.323599
-0.727923    -2.13951    -3.55955
0.30542    -0.924879    -2.54653
0.0217505    -0.353775    -1.15
-1.61771    1.42552    -0.0634635
-0.344334    0.574638    2.61669
0.617922    2.59332    0.94932
0.67043    -0.480404    0.382764
0.348824    1.66597    0.222593
1.14874    1.0783    0.122419
0.725232    0.921974    -0.998738
-0.74277    0.422056    -1.26957
0.380823    -1.13973    -0.366117
-0.737566    -0.86212    -0.146595
-0.648105    0.0469422    -0.0190815
-0.185631    0.259862    -0.306938
-0.25879    -1.56404    -0.0438356
-0.495999    0.0139221    -0.176881
-0.78104    -0.344342    -0.0359232
-0.901783    0.118319    0.0286341
-0.395604    -0.710569    -1.66106
-0.261438    -1.56853    -0.201468
1.13297    -1.3347    0.258211
0.99031    0.465889    0.750828
-0.202073    0.816317    -0.427663
-0.893052    0.143872    -0.406816
0.0511537    -0.0173982    0.939278
0.404653    1.09331    -0.0498235
0.163978    -0.535264    0.249091
1.70162    0.377464    -0.647097
1.76206    -0.781487    -3.22756
1.03996    -0.74199    0.316395
-0.561759    0.401519    0.277074
1.057    0.176021    -0.404753
-2.03528    0.0981178    1.55165
-1.04503    -0.567652    -0.883273
0.834865    0.83038    -0.233936
0.17725    -0.422606    1.8847
-1.98176    2.04337    1.0937
-1.12919    -0.0270801    0.592852
-0.520931    -0.740237    -0.437575
-0.774704    0.972671    -1.46724
-0.0408205    -0.599418    -1.42856
-0.385152    -0.315774    -0.399049
0.131805    0.470196    -0.119757
0.372787    0.680029    -0.968745
-0.0270462    -0.105944    -0.341409
0.428341    -0.406131    -0.399046
0.123504    -0.129973    1.31366
-0.297295    0.106744    -0.125066
-1.2822    -0.624758    1.79098
-0.121927    -1.4585    -0.436768
-0.127893    -1.27603    0.374709
0.638877    -1.43313    0.81289
-0.185738    -0.634906    -1.07298
1.03401    0.652748    0.0183718
0.307436    -0.744102    0.0965969
-1.26109    1.50428    0.981228
0.996864    0.455904    0.285235
1.05387    -1.13661    -1.00119
0.729851    -1.47481    -2.41996
1.78155    -0.526534    -1.34225
1.82778    1.5989    -1.57281
0.694712    0.196495    -1.57345
0.477425    -0.00554627    0.302152
0.403992    -0.123181    -0.934202
-0.870781    -1.2242    -1.98365
-1.01095    -1.59538    -1.11655
-0.264409    -0.289107    0.485337
-0.508739    -0.928719    0.443866
-0.381867    -0.33352    0.133875
-0.261629    0.000963141    0.38265
-0.032978    1.00929    0.306044
0.598945    -0.0780902    -0.583767
2.69264    2.36786    -2.66453
-1.41778    1.6543    -2.06568
-1.30082    -0.055624    1.59556
-2.38603    -0.748921    -0.804753
-0.906046    -0.918815    -0.718077
-1.17088    -1.15973    -0.156072
-0.777168    0.496787    -0.884629
-0.288967    0.0568697    -1.32157
-0.016249    -0.0528381    -1.2681
-1.80468    0.564692    -0.0620303
-2.43545    1.43169    2.82972
0.85369    1.38719    2.19846
1.27355    0.40703    1.51181
1.25449    1.00003    0.315203
0.151348    0.365834    -0.534789
-0.3146    -0.120573    0.125165
-0.0148423    0.457285    -0.0577986
0.422485    -0.0967128    -0.0966318
-0.347051    -0.832535    -0.939989
1.62276    -0.148753    -0.226638
0.105161    -2.21924    0.038099
0.668845    1.66795    -0.847483
-0.0491502    -0.196106    -0.0623816
-0.107261    -0.322247    0.0610119
-0.427465    -0.582454    -0.0202099
-0.117233    -0.479193    0.556953
0.513253    0.00956205    -0.524319
0.167245    0.661687    3.02018
0.621984    0.379978    2.59613
-1.81945    1.2532    2.31745
-1.25823    0.335506    1.91147
-0.123194    -0.635783    1.27444
-0.856172    -0.704678    1.88563
0.982759    -0.0459279    2.33212
-0.194464    1.80277    1.22315
-1.04434    1.72578    -0.33249
0.4623    0.353431    -0.0256008
-0.109847    0.3803    0.514951
1.11956    -0.629523    0.643559
0.621936    0.713958    0.421229
-0.503621    -0.13882    2.19573
0.042031    0.64123    1.85164
-0.915756    0.14809    1.38679
-1.86494    0.3182    1.35861
-2.52376    1.5357    -0.625702
-1.20688    0.348644    -0.778686
-0.0150761    -0.312685    -0.22358
0.566837    1.03541    -0.0671577
0.218418    0.659729    0.316255
-0.361515    0.251017    -0.10647
-0.240007    1.06827    -1.10694
-0.441468    -0.907827    0.114538
-0.497041    -0.202266    0.0228774
0.486628    0.533434    -0.885045
-0.715725    0.155101    0.335948
0.0954451    1.36272    0.012352
0.391694    -0.422828    0.7585
1.0536    -0.973092    0.465699
-0.531149    -0.0853088    2.54638
0.866289    -0.647661    1.29346
0.308352    0.441902    0.243604
0.503313    0.905261    -0.225941
-0.363784    0.174575    0.405098
0.0833685    0.386541    0.538542
-0.00293242    -0.4591    -0.0754807
-0.256423    -0.464882    0.237551
-0.278747    -1.13554    -0.301505
-0.924846    -0.242125    -0.394215
1.21087    -0.134081    -0.681772
-0.434844    0.237781    0.513626
0.245775    -0.0781095    0.0344228
-0.198448    0.793622    -0.956807
-1.02441    0.0594749    0.147282
1.10643    0.74598    -0.961994
0.322341    0.271647    -0.502634
-0.741648    0.551349    0.858521
-0.759137    -0.081491    0.938734
0.585135    -0.502491    0.616029
0.129623    0.288414    -0.730962
0.749141    0.78677    0.780078
-0.193744    -0.420541    1.50843
-0.995791    -0.628954    -0.531495
0.212861    -1.34585    -0.284528
-0.830943    -1.32192    -0.837551
0.118797    -0.398312    0.151307
-0.667981    1.51364    -0.443968
0.111183    -1.01729    0.401759
-0.555008    -1.67331    1.14253
-0.669099    -0.955423    -0.00146
-0.32343    -0.484866    2.19034
-0.215427    -1.11446    -0.16115
-0.026115    -0.923277    -0.604934
-0.800664    -0.0174238    -0.309566
0.0239722    -0.124069    -1.96557
1.53256    -0.338098    0.757012
1.93931    -0.348471    -0.0114906
0.511486    -2.2704    0.00241437
1.62651    -2.59807    0.515537
0.714173    -2.94704    -0.564503
1.37479    -2.05996    1.21068
-0.936623    -0.147135    0.190587
-1.49804    -1.52236    -1.28827
0.531717    -0.251752    -1.00048
-1.2895    0.0448873    0.631848
-0.237128    0.469947    -0.564349
0.725083    0.851094    -0.363606
1.12086    1.1944    0.704556
2.95895    -0.0388853    1.32131
1.67061    -2.09319    0.310815
0.248389    -1.85806    0.872307
-0.410284    0.683122    3.13316
0.257261    -0.0794702    -0.0682979
-0.739292    -0.559004    0.221204
-1.32486    0.0936221    -0.486365
0.0811026    -0.109275    -0.130092
0.244045    0.57616    -0.355642
0.17004    -0.49268    -0.201117
-0.602474    -0.159257    -0.00752411
0.623496    -1.19918    -0.27291
-0.600425    -0.362152    0.861466
1.30254    -2.64513    1.72031
-0.113021    -0.850645    0.874377
0.500058    -0.093167    -0.594672
0.727539    -0.837026    -1.15185
1.64116    -2.40702    -0.10019
-0.895216    -1.04622    -1.66783
0.615613    -0.813796    -3.06868
1.2035    1.48091    -0.562621
-0.289288    0.2798    -0.624458
-0.575455    0.686748    -3.36457
0.13528    1.36967    -0.50231
0.783216    0.362979    -1.79887
0.660729    -0.990961    0.770555
-0.344885    0.745402    0.0910876
0.341939    0.213592    -0.282036
-0.412285    -0.476558    -0.268022
0.102343    -0.9319    0.0856508
0.0199863    -1.06601    0.296794
1.59294    0.656278    -0.233057
3.36222    1.26301    3.31041
1.67738    2.65789    2.93224
3.15086    0.641679    3.13096
1.49164    2.54012    1.16925
1.73931    0.330096    0.115456
-0.752482    -0.305338    1.49609
1.13943    -0.687159    2.27509
0.998687    -0.486945    0.715047
-1.4049    -1.70973    0.950839
-0.327656    0.131004    0.682892
0.644299    -0.0341128    0.520679
-0.850113    0.855927    0.261282
-0.436319    -0.792692    0.147691
0.307055    1.64046    1.05609
1.07505    -0.556262    -0.551434
0.198902    0.0696862    0.623859
0.668874    -0.383016    0.401529
-0.534294    -0.194281    0.564677
0.0518588    0.0399329    0.0384797
-0.659827    -0.718717    0.84502
0.405302    -0.381161    1.56488
1.56866    -0.905427    3.10815
1.32892    -0.950584    1.03771
-0.354377    0.281842    0.360304
0.765029    -0.0864508    0.27648
0.771821    -0.115842    -0.582779
-1.09248    1.30158    -0.7613
-1.52579    0.772115    0.457736
1.45695    0.0658045    0.3871
0.889194    -0.672201    -0.398495
-0.605256    0.69208    1.47463
0.300054    -0.901734    -0.410675
0.152829    -0.0969414    0.105801
-0.852224    0.363316    1.73999
-0.538599    1.28196    2.24782
-0.0443393    0.920499    0.0486473
-0.270955    0.0271886    -0.169124
0.296666    0.0575075    -0.905064
0.464588    -0.470995    -1.78226
0.158908    0.429973    0.116886
-0.386344    1.35231    0.383263
0.209574    0.132749    -0.707548
-0.269212    0.046551    -0.599336
-0.0528348    0.219876    0.0738111
-0.0528348    0.219876    0.0738111
0.566815    0.649997    -0.26253
-0.817241    -1.71708    -0.425459
0.85156    0.142253    0.549234
0.036613    -0.446242    -0.0637605
-0.111184    0.525153    -0.410816
0.854916    0.154941    0.445054
-0.44702    0.188496    0.0153823
0.970963    -0.083334    0.693302
0.788993    -1.52225    0.390171
-0.284306    0.0993453    0.61823
-0.320153    0.889386    0.329154
0.396207    0.414861    -0.0157761
0.675003    -0.164259    0.692572
-1.37565    -0.721129    1.08449
0.473573    -0.235324    0.471599
-0.716209    0.3801    0.733232
0.223065    0.581968    -0.440575
-0.70436    0.664993    -1.00526
-1.09964    -0.175145    -1.15931
-0.151573    -0.86567    0.918226
-0.0811864    -1.78698    1.02818
-1.23226    -1.14447    -0.65452
-1.20071    -2.89676    0.686182
-0.905877    0.107183    0.632841
0.709892    -0.0604179    0.0839126
-0.841511    -0.00682642    -1.37798
-0.489441    -0.314211    0.23483
-1.3879    -0.562266    0.112142
-0.0157737    -0.262566    0.00815015
-0.0157737    -0.262566    0.00815015
-0.152418    0.0460389    -0.901958
0.302679    0.108472    -0.345392
1.3745    0.461418    -1.00159
0.666822    -1.42677    -0.472268
-0.293972    -0.358318    -1.52521
0.218144    -0.371484    -0.546985
0.120547    -0.252468    0.610942
1.66835    -0.943043    -0.168281
1.2783    0.359204    -0.0862525
-1.06551    -0.572586    0.480972
0.325256    -1.99682    0.351482
1.79936    -0.184096    -0.280621
0.579733    -2.14767    -0.125592
0.139728    -0.623537    0.482918
0.0310504    0.239391    -0.514238
0.620959    -0.714724    -0.640697
1.83105    -0.501428    0.356632
-0.0928249    -0.659775    -0.106721
0.323186    -0.342502    -0.239532
0.316138    0.815697    0.449449
-0.129156    -0.845002    -0.962232
-0.0475855    0.113551    -1.02106
-1.58479    0.0789741    -0.884758
0.421566    0.442594    -0.437211
0.0233335    0.283996    0.00314344
0.525195    -0.0174716    -0.590311
-0.542548    -1.44087    -1.01946
0.307975    -1.75675    0.837583
0.507131    -1.00501    1.55936
-0.60137    -0.405598    0.291249
-0.263086    -0.427139    0.571089
-1.21988    -1.48073    0.623868
-0.290739    -0.607412    1.03747
0.0832495    0.143708    -1.10139
0.369034    0.948954    -1.12017
0.242329    0.170072    -0.260693
-0.718764    0.40331    -0.424502
0.763477    3.04673    0.546116
-0.0829515    -0.694119    0.74518
0.656722    0.440596    -0.864176
-0.207268    -0.30894    0.832392
0.803695    0.82694    0.965064
1.25176    -0.871819    -0.0198662
0.53692    -0.1858    -0.152202
-0.716338    -0.607372    -0.532629
0.695017    0.768826    -1.98892
-0.375006    -1.31785    0.574299
-0.763665    0.715174    0.751183
-1.99698    1.71077    -0.869577
0.528519    0.148688    -2.53032
-0.587122    -1.4293    -1.00653
-2.10839    0.578758    1.47658
-0.487284    -1.51317    2.05166
-0.0713768    -0.0653693    0.358891
0.13171    -0.121804    0.189578
-0.779837    0.135612    0.267436
0.0139424    -0.000502128    -0.0969656
-0.333966    0.0892241    0.647448
0.435008    -0.234439    1.05439
-0.171274    1.619    0.530764
1.72353    -0.37823    0.602378
0.706222    0.734811    -0.384174
2.71184    -0.180768    -0.954617
0.425938    -0.374744    -0.819014
0.446927    -0.756385    -1.70817
0.259354    -0.027166    0.139169
-0.588521    0.821171    0.0317481
-1.1421    -0.41876    0.496423
-0.50694    -0.910249    1.79058
1.03814    -0.283157    1.22706
1.17244    -0.181892    2.53171
0.726086    -0.638308    -0.0487205
0.344318    -1.58464    -0.983646
-0.174931    -1.59039    -0.589803
-0.652696    -0.715522    1.15402
1.21132    1.13291    3.16861
-1.54536    1.80276    -1.062
-0.411615    -0.253604    0.140491
-0.411615    -0.253604    0.140491
-0.852975    0.906387    -0.111972
-2.21137    0.979827    -0.0848509
-0.407311    2.58279    1.11011
-0.175724    -0.384872    -0.257893
-0.116351    -0.586151    0.412731
0.207133    -0.505324    1.05402
0.394226    -1.32911    0.0984831
0.943407    -1.80596    -1.51086
-0.222573    0.25206    0.157229
-0.578626    -0.784996    -1.90354
0.763514    -0.194431    0.201294
0.317748    -0.0743055    -0.71495
-1.79881    0.157255    -0.401236
0.56305    -1.00213    0.0176397
-0.138242    0.203605    1.01459
0.488588    -0.434462    -0.757739
0.451547    -0.0702472    -1.26505
0.394525    0.265404    -0.10537
0.237817    0.282383    -0.644393
1.50391    0.249908    -0.833224
0.00915056    -0.118765    -1.22498
1.48925    1.0968    -0.830212
0.0958787    1.16953    -1.5807
0.0703289    0.309082    -0.616574
0.0410234    -1.28535    -0.21365
-0.374483    -0.180017    -0.110394
0.589546    -0.878248    0.21318
0.446308    -0.523261    1.64948
-0.963679    1.51298    0.333512
-0.820085    0.704149    -2.23912
-0.324884    0.50772    -0.76038
0.20096    0.401389    -0.0357216
-0.316792    -0.225751    -0.760995
-0.233103    -0.463168    -0.507393
0.352148    -1.7783    1.6682
0.983547    -2.47757    1.18563
2.21471    0.330673    2.08698
-1.38559    -2.21046    1.49009
-0.362783    -0.416963    0.815551
1.01897    -1.46015    0.260078
0.703834    -0.136558    1.23235
-0.250676    0.672115    -0.436879
-1.51752    0.454654    -1.3675
-0.35836    0.398166    -1.58449
0.0672453    0.944402    -0.210122
0.344274    0.0874478    0.268055
0.587877    0.732674    2.04719
0.326165    1.0168    3.02386
1.74231    -1.92501    2.71788
-0.972328    -1.63082    3.43044
-2.30014    -1.19931    2.85269
-1.54599    -1.89666    1.42992
0.495658    0.399809    -0.119929
-0.432076    0.421781    -0.446751
0.448483    -0.472191    0.667945
-1.1747    0.765626    0.121307
0.532336    0.0617013    -0.336336
-0.0450247    0.614154    0.193885
-0.464722    -1.53819    -0.447017
0.45487    -0.636277    -0.432023
0.63777    -0.999359    0.36305
0.296423    -2.16441    -1.32049
-0.92107    -3.46374    -1.13742
1.82053    -1.58305    1.60193
1.23362    -0.725783    0.149941
1.87744    -0.853146    0.673737
0.604044    0.780607    0.489327
0.332799    1.36695    0.406389
1.4109    -2.3384    -0.493761
0.238775    -0.841811    -0.753411
0.0120374    -0.717645    -0.88263
1.84257    -0.76766    -0.0418856
2.16173    4.7829    -0.724322
-0.205829    3.94513    -2.6582
0.947247    3.78398    -1.10437
-1.28662    -0.25203    -0.29668
-1.23069    -1.24385    0.424054
0.121221    -0.482663    0.681519
-0.357002    -0.676414    0.381555
-0.635156    -0.631548    0.931238
0.543674    0.287514    -0.602364
1.11582    -0.137741    -0.327347
0.213004    -0.845911    -0.837146
-1.74496    -0.61693    -0.8741
0.367226    -0.433079    -2.3682
0.398593    0.64136    -1.5267
-0.56198    -0.210886    -1.18754
0.512527    -0.46557    -0.943101
-0.108687    -0.651469    0.353189
-1.03349    3.12136    -1.38985
-0.327019    1.70158    -1.02453
-0.0330335    2.50598    -0.690987
0.149898    -0.630656    -0.949657
1.33665    -0.588184    -0.937248
1.88291    0.774922    1.01954
1.087    -0.249752    -0.361311
-0.635612    -2.0558    0.310325
-2.75003    -0.129503    -0.26903
-0.268538    0.493911    0.605619
1.3191    -0.575249    0.278027
-1.54209    0.368216    1.45929
0.0591588    2.29938    0.685645
-0.29514    -0.207356    0.0359109
1.15309    1.95165    0.634398
-0.968404    -0.291743    -1.57479
0.81554    1.35665    -1.55506
1.4446    -1.07946    -0.354315
0.882202    -0.561001    1.52096
0.469038    1.17565    0.326853
-1.12694    0.371945    -0.923425
-0.782511    0.422742    -2.71471
0.14118    0.389132    -0.519516
-0.427112    0.49475    -0.397091
0.497135    -0.591052    0.726221
-0.484807    -0.677165    -0.344934
-1.525    -1.11526    -0.249248
-1.95643    -0.968496    0.232389
0.766107    -0.195872    1.34465
0.590598    -0.371778    -0.120876
-1.07151    -0.282524    -0.014045
-0.390621    0.162297    -0.929518
0.470109    -0.419262    0.0139958
0.340837    -0.0903062    -0.559935
0.36503    -0.232545    -0.294675
1.72901    -0.291306    -1.69118
0.266622    -0.238238    -2.06991
-0.614836    -1.67528    0.157193
-0.0411737    1.34839    1.3781
1.39363    0.991359    0.629189
0.474011    0.171886    -2.11907
0.407326    -0.278796    0.253118
1.07742    1.22055    1.85497
1.33125    -0.0989159    2.24234
0.487422    -0.069668    1.7803
2.10112    0.265956    -1.17387
0.55741    -0.236693    -0.751692
-0.0609405    0.285401    1.3819
-0.560837    -1.5005    1.05683
-1.58272    -0.133604    0.410869
0.420232    0.230076    -0.941527
-1.92599    0.598246    -1.46476
-1.92618    0.346597    -0.00744109
0.79807    0.948248    -0.11075
-1.49984    0.767717    -0.842124
0.00907139    -0.792742    -1.1081
0.430748    0.371986    -0.278227
-0.171831    -0.0195667    0.0989786
-0.458529    -1.00923    -1.39701
0.970555    -1.55456    -1.36784
0.457361    -0.3095    0.00433024
-0.421668    -1.66286    0.751201
-0.63564    -0.431333    0.438634
0.318068    -0.0355669    -0.291581
-1.14166    0.0122743    -0.263597
0.402238    0.195242    0.747076
-0.906964    0.754697    0.329909
-0.605728    0.0299847    0.296141
-0.264761    -1.02394    0.114499
0.797939    -0.216171    0.751879
-0.303609    1.15474    1.67071
-0.00421291    0.193982    0.320585
-0.737545    0.600641    0.488824
-0.942642    0.641394    0.294326
-0.261624    -0.398062    0.000340451
1.00243    0.37205    -0.628459
0.619389    -1.11738    -0.94869
-0.419592    0.621579    0.815304
-0.858668    -0.175984    -0.314655
-0.139037    -0.686621    1.33555
0.848575    -0.443338    1.55992
-0.0120752    -0.313016    0.191975
0.323013    -0.161228    -1.43114
-0.645224    -0.851621    0.836648
0.02482    -0.289129    2.47892
-1.33392    -0.159135    0.255277
-1.1223    -2.27955    -0.348552
-3.04709    -0.371395    1.67915
-1.55358    -0.840422    1.59301
0.192313    -1.52223    0.923524
-0.46807    0.886147    0.15257
0.50918    0.675359    0.0486735
1.37076    0.630291    -0.298093
-0.220874    -0.421864    -0.375227
-0.383915    0.0445881    0.651039
-0.529797    -0.338236    -0.33
-0.433752    -0.200915    -0.511639
0.177807    -0.869023    -0.494408
0.665145    -1.45755    -0.812242
-0.582023    -1.12825    -0.801229
-0.786392    0.140436    0.322601
-0.184512    -0.299259    -0.212504
-0.77112    -0.060947    0.627953
0.65909    0.816835    -1.92304
1.45077    -0.724773    0.175625
1.27302    -0.522066    1.28115
-0.815977    0.894204    1.03247
1.41749    0.597132    -0.0871648
0.638609    -0.220851    0.168759
2.31658    1.02138    0.728233
1.10284    -1.38885    -1.19775
-0.295422    -1.757    -0.00366395
-0.0169516    -0.750483    -0.695823
-0.0439241    -0.194895    -0.484478
-0.545441    -0.0680268    2.07426
0.654011    0.418186    -0.534967
-0.60011    0.804076    1.06
-1.03044    -0.547507    1.37683
0.786196    -0.528867    1.12365
0.513919    -0.181853    -0.20655
0.477299    -0.143532    0.0924744
0.137629    1.78103    0.525342
0.319326    0.368141    0.341627
0.445124    1.34435    0.385996
-0.039986    -1.55832    0.51415
0.942603    -2.8654    -0.215559
0.204799    0.292135    0.515794
1.91518    0.163074    0.369017
0.370518    -0.692381    0.412668
1.09467    0.0163191    -0.142093
-0.109018    1.14179    2.38235
0.133216    1.04624    0.745124
-0.637273    1.44362    0.238358
0.270723    2.22398    -0.249994
0.289646    2.64709    -0.258187
2.3404    1.6105    -1.20193
0.147456    -0.686865    -0.480894
-0.0167855    0.84261    -0.329233
-0.181351    -0.267689    -0.481831
-0.338489    0.0863281    -0.000962048
-0.181855    0.270504    -0.317779
-0.34142    1.45636    0.431361
-0.502585    -0.368594    0.970618
1.62874    0.860605    0.534437
0.882102    0.0125167    0.495508
0.046671    -1.3631    -0.659239
0.642047    -0.110353    -0.265978
-0.797999    -0.223916    -1.49507
2.06251    -0.646549    -2.59963
0.328184    1.20539    -1.56724
0.82165    1.06685    -0.416918
0.669535    0.541834    -1.10273
3.07461    -0.743829    0.747364
-0.82719    -1.50978    -0.0339744
0.0383457    -1.34981    1.33228
-1.33776    -0.060263    -0.128381
0.657113    -0.851927    -1.79033
-0.224582    -0.867466    0.0906478
0.181655    -0.451014    1.59806
0.280597    0.306265    0.859076
0.532591    1.4091    0.546955
1.29676    -0.022598    0.898925
1.54223    0.581399    -0.678931
0.787281    1.89008    -0.466496
-0.764452    -0.173285    -0.447263
0.0969512    0.923038    0.726818
0.528207    1.1245    0.974497
0.994716    -0.267727    2.58403
0.0108048    -1.14873    0.187139
-1.14989    -1.65023    0.339615
-0.56553    -1.19973    -0.808424
-1.57983    -0.960616    -0.953076
-2.27878    0.738745    0.110331
0.362144    0.139563    0.866149
-0.29368    0.489697    1.43636
0.144065    0.144087    -0.0420578
-0.0381399    -0.886112    0.738793
0.23977    0.0403891    0.108573
-0.099491    0.0816272    0.0237725
-0.099491    0.0816272    0.0237725
-0.385567    0.4799    0.228205
0.670049    0.346257    0.299858
-0.320594    0.0735192    -0.509537
-0.269025    -0.32263    -2.24778
0.62064    1.35125    -0.0723964
0.476568    0.48117    -1.08808
0.446606    0.237006    0.241504
0.358191    0.179843    -0.180604
0.94313    -0.942425    0.0669141
-0.553797    -0.256849    0.172668
0.379038    1.4939    0.194201
0.23096    -0.679437    0.0478595
1.41319    -1.3073    -0.454863
1.69092    -1.28346    2.31302
0.400944    1.19392    -0.672282
1.27675    0.585171    0.629906
-0.614185    -0.458056    -0.800158
0.743483    0.106474    -0.208055
0.0988282    -0.636858    0.550466
1.98726    0.535994    0.400983
0.475169    -0.962732    1.32746
0.444068    -0.123699    0.385226
-0.0496414    1.02512    0.933137
0.00125204    -0.12114    0.266923
0.189936    -0.200287    0.222415
0.34073    0.0727734    0.883012
-0.483771    0.48272    0.235206
1.13648    -0.579982    0.149382
0.935611    -0.94641    0.242621
-1.30462    0.0118331    0.68245
-0.866301    0.617184    -0.575045
-1.16274    -2.1707    -1.91929
-1.68377    -1.04844    0.409194
-0.422535    -0.248108    0.833
-0.966296    -0.523312    0.114571
-0.882457    1.56027    -1.52012
-1.20945    1.20598    1.17303
-1.72848    0.825672    2.22256
0.638827    0.576474    2.07855
-1.78595    2.14142    1.22457
-1.02537    -0.222391    1.52693
-0.333608    0.557077    1.03783
0.00928054    0.304392    -0.388901
0.256896    -0.760297    -0.370459
0.385286    0.231092    -0.387196
0.385286    0.231092    -0.387196
0.689251    1.73979    -0.391624
1.05265    1.94009    0.224046
1.89098    -0.0732168    2.36544
-0.206083    0.205466    0.530101
-0.371777    -0.42132    0.348117
2.17794    0.143632    0.920066
1.49006    0.87187    2.38389
-0.905165    1.24094    -2.08037
-1.23237    1.08342    0.198259
-0.7959    -0.453765    -0.640704
0.181594    -0.626048    -0.893029
0.240581    -1.29227    -0.48976
-0.758835    -0.994766    1.41727
-1.77798    2.01372    2.49274
-1.8417    0.632903    1.58495
-1.61536    0.836218    1.29419
-0.209172    1.18416    -0.584595
0.484    0.783225    0.340999
-1.31967    1.20526    0.234094
-1.55601    1.38821    -0.0737145
-1.52427    2.28809    -1.97906
-1.60016    2.24717    -1.13964
-1.83792    1.98698    -1.18875
0.278238    0.5689    -1.36822
0.255138    0.719157    -0.102793
-0.0530211    0.0750372    -0.0611788
-0.28328    0.621651    -0.305212
0.0264695    0.165382    0.610044
0.446539    -3.35693    0.438421
2.47027    -0.863014    -1.44836
-0.229442    1.03101    -0.100768
0.894698    0.608215    0.649405
0.584074    0.35049    0.862711
-0.758261    -1.26086    0.600273
0.0662232    -0.563273    -0.0891295
1.35587    -0.171728    -2.66452
-0.0825167    1.28198    -1.42417
0.764686    1.32661    -0.541383
0.914532    -0.582597    -0.269415
0.366026    -1.33553    -1.1135
-0.121832    -0.207329    -0.720371
-0.121457    0.271459    1.65448
-0.964807    0.00539966    0.142517
-0.577303    0.413615    0.580838
-1.31502    -0.135273    0.221799
-2.0878    -0.91883    1.06471
-1.11063    -0.963624    -0.255567
-0.860454    -0.936837    -0.249818
0.0135282    -1.12437    0.0813112
0.160162    -2.71087    0.402475
0.0714882    0.428534    -0.0833636
0.632595    0.932023    0.403381
-0.284944    -0.47157    1.22997
-3.91161    1.26571    0.147998
-1.68696    0.216049    0.632387
1.02521    -0.255598    -0.6233
0.376178    -0.530459    -1.10028
0.181679    -0.434103    -0.0695984
0.28615    -0.0708206    -0.252163
1.04164    1.40795    1.62953
-0.0214674    -0.929132    0.706371
-0.128275    -0.576998    -0.12701
-0.128275    -0.576998    -0.12701
-0.659998    -0.538741    0.0806737
-0.203937    -0.0305924    -0.942581
0.0748425    -0.990392    0.263677
-0.150592    -1.53411    1.64124
0.109619    -0.452014    2.7323
2.62228    0.400492    0.0753724
0.00515479    -0.0555096    -2.97824
0.522486    0.230435    -0.113481
0.124703    0.210535    0.737815
0.282319    -2.2577    1.07515
1.96299    0.408931    -1.9966
0.86357    -0.420646    1.51754
0.165062    -1.08612    1.38221
-0.747044    0.157408    -1.77868
-0.72483    -0.132963    0.563111
-0.481548    0.833058    -1.13132
1.17781    0.202499    1.55026
1.41772    -0.261055    0.690544
-0.772079    0.215206    0.115396
-0.302211    -1.18752    -0.909562
0.0791377    0.102729    -0.0250015
-0.370886    -1.17586    -1.03256
-0.775558    -1.28288    -0.946772
-1.20355    -1.08396    -0.154992
-0.602444    -0.964519    -0.797917
0.0692124    -0.468751    0.676632
-0.765222    0.35567    -0.0817413
1.04339    -0.795689    -0.0274977
0.011699    -0.243668    -1.01887
-1.99054    -0.417443    -0.503439
-2.04138    -0.257213    2.08478
-0.713948    0.420544    1.1522
-0.00732935    1.12899    -0.338707
0.22002    0.0424563    0.812852
-0.167241    0.317291    0.845684
0.990037    1.61604    0.655225
0.23041    -0.765665    -0.569655
0.478231    -0.377008    -0.219551
-0.364215    -0.242881    -0.560507
0.902679    0.148877    0.453775
-0.812901    0.778878    0.732013
-0.0706639    -0.17051    -0.545646
0.337195    0.115523    0.0278082
-0.026185    0.133685    0.0257825
-0.026185    0.133685    0.0257825
0.3401    0.101893    0.0750813
0.935952    -0.134944    -0.624891
0.45036    0.04629    0.227631
0.12556    -0.0259071    0.0213064
0.00710104    0.468323    0.64212
-0.0603009    1.10496    0.0852153
-1.1246    0.529899    -0.347574
-0.253319    -1.36088    0.588174
-0.5611    0.342195    1.064
-0.579497    0.115254    -0.0980653
-0.604471    0.391258    0.723152
1.33603    0.435741    0.878758
