0.322689    -3.91919    5.42887
6.24177    1.38671    3.51697
4.74336    -0.167555    8.14736
2.25369    2.24598    3.2046
2.42572    1.65314    6.63641
1.25729    0.715791    3.40862
0.45578    0.241793    9.06066
-0.5623    3.61414    6.44365
-0.689685    0.689756    3.38038
2.71899    1.16883    4.64174
-2.44934    -2.02757    6.49608
-0.478484    1.11776    0.760877
-2.66023    -0.157316    -2.0323
0.846643    0.190739    1.90922
-0.656677    -0.828316    2.57675
0.67209    -0.591352    -5.93766
-1.6795    -3.79747    -1.70094
-1.90889    1.27033    -3.30331
0.955178    0.915574    3.46436
2.05808    -2.08497    4.92277
3.36464    2.48395    1.82421
1.56138    1.53827    2.65249
2.02796    -0.911398    2.33655
1.31692    0.576175    3.75583
0.298842    -2.47664    1.22263
-0.538036    -3.48773    2.41029
1.494    -0.259177    6.77031
-3.04194    0.371225    5.89665
1.25875    3.06968    5.05633
-1.11827    4.25339    4.0978
2.5514    1.70186    6.345
2.38255    -1.46353    4.04582
-1.95163    1.17306    5.23698
-4.04545    0.774058    3.3075
-0.927661    -3.12772    5.36133
3.93763    -2.20443    -2.44594
4.85    -3.79684    -3.20913
-1.16012    -0.348045    -6.85735
0.159316    -2.19413    -2.91776
-1.61918    -1.8824    -2.70331
-1.22617    -3.59972    -1.94079
-0.388908    -1.69957    1.39421
1.18511    0.509239    -2.14643
-1.14303    -3.00079    -2.1362
2.81564    2.63326    1.86669
-0.751634    1.25005    -3.23382
1.24164    -0.606322    -1.72312
1.57988    -1.31573    -2.70306
3.33177    -3.41581    -6.6767
-1.10469    -2.34728    -4.68667
-3.34781    1.24119    -1.99833
-1.88001    -0.627117    -2.17064
0.301688    0.875481    4.62152
-1.05308    -1.42507    3.42213
0.532127    -0.596709    3.742
3.77694    -1.74218    2.73884
-2.61801    -2.20934    6.79792
-0.817154    -0.229346    4.30001
0.617623    -0.332868    1.3717
-1.96284    3.18745    3.43829
1.27873    3.27828    3.58849
3.06443    1.63971    5.07361
-0.0377913    -0.876911    4.01444
2.64495    -0.797819    5.83006
2.89777    1.99414    3.33308
0.457876    -2.13752    4.96237
0.779774    -1.17218    4.43444
2.37209    -6.2733    0.950648
3.24008    0.443108    3.59029
-1.9254    1.30591    3.15556
-1.13772    0.409482    5.65952
-0.320247    -0.244578    1.45845
0.68603    2.07145    -5.37107
0.188356    -1.87865    -3.16367
0.536623    2.04298    -2.72776
-0.240003    0.802994    -4.51174
0.0319231    -1.5128    -4.89513
-2.15963    -1.43624    -2.0907
-0.700417    -1.13244    -3.9226
0.0536932    1.52553    -1.97641
-0.899742    3.65709    -3.58875
-1.41028    -1.3647    -4.62359
-1.42312    -0.919938    0.73347
-1.97698    -0.940557    4.96053
3.53765    1.31878    5.99733
-1.849    4.23227    6.50494
3.87003    2.14313    5.83156
4.64206    -1.37187    3.203
-0.166227    -1.23261    3.14123
-1.9844    -0.413123    6.08915
-3.47509    2.28448    4.77021
-0.945903    -0.160189    -1.79528
-2.50521    -1.35164    -1.82558
1.36359    -0.414736    -3.80849
0.712569    -3.40618    -5.98181
0.445367    0.33194    -2.13243
1.76962    2.45214    -4.33368
-2.82427    0.640114    1.07236
-4.94182    0.881989    -4.13647
-7.21773    1.78766    8.17906
-14.7279    2.93659    7.87842
-8.01383    11.3895    3.02577
-3.21848    2.50981    0.625318
-2.71182    0.157441    -2.7116
-0.222735    1.27196    -3.10558
2.01719    0.328261    -4.61329
2.85737    4.68708    -1.94786
1.17245    -1.7589    -2.04746
-1.90029    2.19432    -1.70048
-1.53578    2.56272    -3.91634
2.95203    -0.663112    -4.22519
2.05749    -2.93808    -6.42339
7.93464    -5.29431    -4.66119
4.71978    -2.05736    -4.64915
4.3305    4.69699    -4.35285
-2.76803    2.83086    -5.77963
0.751541    2.30191    -1.46078
0.109562    -1.76514    4.99136
-0.156973    1.39293    2.07038
-1.42415    2.39957    4.30465
-0.295803    1.79492    2.32437
4.78682    4.4929    3.58078
2.46591    3.49158    4.38628
-1.30284    -2.11361    5.48246
-1.23274    -0.452761    -0.820594
-2.88101    -3.27486    -5.65486
0.542427    -0.818058    -2.86735
0.554016    -1.37708    -1.31463
-1.45169    -1.34593    -2.51324
0.0273006    2.61614    -9.45262
-1.3032    1.12623    -1.89954
-3.15796    1.79191    3.93052
-1.65444    4.33324    2.91772
1.04712    1.71246    1.45132
-3.8722    1.81394    -4.58415
-2.57658    -3.35213    -5.16446
-0.26795    1.00397    4.26492
0.585835    -0.309203    2.07269
-4.07617    -0.68498    -6.06119
0.110428    0.906371    -5.62197
5.14835    1.66184    -6.38163
6.12377    -1.24314    -5.68677
3.34807    -2.02944    -2.16953
-1.45646    -1.01826    -4.03023
5.09481    2.31811    -2.33989
2.26574    3.0474    -5.97655
0.235618    -0.965659    -3.32626
0.0329082    -2.44473    -2.25917
-2.40485    0.402517    1.4034
-0.844578    -0.907676    -2.55332
-1.48456    0.0746908    -4.24369
-2.92342    -0.277542    -1.3646
3.30828    -3.3178    1.25178
0.98447    -4.99685    4.05494
-1.57425    -2.83005    6.18851
1.266    -5.00453    1.30089
-0.756813    -2.38047    1.62088
-1.22772    -1.376    -1.81179
-3.43455    1.08907    4.87412
0.010065    -0.0986785    2.73513
-1.84987    3.36742    6.92724
-0.175498    1.04867    4.25619
3.62215    2.21324    4.72678
-0.197065    -1.56427    0.2398
0.00154857    0.848231    5.45516
-1.59636    -2.85529    5.65346
2.71725    -4.22171    2.58379
-0.0702423    -1.88593    2.11057
0.0542204    -1.24061    1.51598
1.37479    0.902763    4.41579
-4.03809    -1.29871    2.76459
2.08855    -1.97584    4.04589
-0.384322    0.600698    5.69518
0.701582    2.34008    5.76735
0.377794    -0.902018    4.14759
-0.89337    -0.815412    1.84983
3.1364    -0.0709606    3.87545
2.13861    -2.07793    -1.00102
3.92465    -1.16079    -1.95201
0.480187    2.21375    -2.68076
-2.01554    -0.0992402    -3.21789
0.327364    1.31131    -1.8081
3.82384    4.21482    -2.6188
2.51968    2.26783    -3.25985
0.164506    -6.22327    -6.76946
2.82071    0.152759    -4.31663
3.86697    -1.72346    -2.92923
-2.5598    2.75149    -4.3996
-0.664363    2.21972    -5.90331
-3.68493    2.96775    -2.82918
-3.19971    -0.699828    -5.13935
1.01563    0.333615    -3.86866
2.22249    -3.01555    -4.84077
-2.51755    2.46153    1.12506
1.88278    -3.98482    -4.35833
4.9807    -2.58702    -4.03203
-2.03409    -0.588108    -3.34712
-0.669744    -1.80006    -4.3824
-0.362078    1.02021    -2.165
-0.715099    -1.12406    1.45209
-0.710321    1.04663    4.88232
0.381249    -0.401693    4.77691
0.381249    -0.401693    4.77691
-2.94171    -1.68063    5.29568
-0.424574    -0.376191    7.0473
0.921618    2.93853    2.99569
-2.05751    1.57154    0.811301
2.06619    -0.267325    -1.65722
-0.670959    -2.2074    -3.35422
0.598768    -0.16181    1.516
-1.00368    -1.33588    2.32688
0.603002    -1.9345    3.76472
-2.40499    -2.19676    -2.12397
0.628417    -0.802907    -3.26728
0.0930455    -4.4344    -2.05967
-4.34519    -0.74694    -2.65969
-0.362079    0.650257    -1.63057
1.12248    -0.190896    -3.61807
1.0483    0.933972    -2.71524
2.93153    -3.5907    -3.93467
1.78555    -6.13547    -4.62356
-1.63498    -0.0689978    -3.33973
-2.09258    -3.69687    3.35202
0.186429    -0.495531    4.6476
0.398656    0.786613    3.29516
-1.2043    1.55174    1.38232
5.28912    1.74846    4.31229
2.09736    0.684322    7.63714
1.28051    -2.78691    3.30689
0.433701    -1.08877    1.14192
-0.779045    -0.704279    4.12055
1.81264    0.811567    5.20454
-0.0456866    -1.35987    1.60211
-0.00794368    0.914136    2.327
-0.498547    2.39036    2.18607
-0.830226    0.51448    4.68939
-1.0143    -0.142442    4.66249
2.56166    -1.65575    5.3136
-1.87656    -0.0216146    5.90149
0.172157    -1.03036    2.24866
-0.415099    0.706533    3.41617
0.903556    -0.229824    1.67361
-2.28404    1.14319    -5.80338
1.20441    -1.84579    -3.01068
3.52163    0.70471    -4.23489
0.434241    -0.779978    -3.0266
-0.214911    -0.268891    -3.66773
-1.17887    -0.557176    -2.81742
-0.799398    0.743921    -5.99434
-1.37556    -1.2753    -3.50143
-1.51251    -0.448711    -1.6111
1.7579    1.49517    2.06899
2.053    0.917476    1.46625
1.91744    1.41018    -2.38904
-2.45274    -0.344369    1.2075
-2.16963    -6.11742    2.03291
-3.88557    0.780306    2.59356
-4.46097    -0.00384978    2.98055
1.46907    -1.37915    2.41714
1.85276    0.772457    2.67727
0.211821    3.77556    3.63058
1.03192    1.80391    4.95332
-3.38256    0.17295    6.16833
1.79201    0.951056    4.13312
-1.55402    0.595652    1.40787
-0.532911    -2.14935    -1.07579
0.198056    -2.32387    -4.1434
-1.27792    -0.285265    -4.20451
-3.50951    -1.80314    -1.8905
1.34311    -0.884977    -5.09543
2.69423    2.54916    -6.20546
-0.36473    3.15255    -7.79378
0.571596    -2.23662    -1.58581
3.15095    -3.05117    -5.05992
3.52235    -3.44253    -4.70514
-0.181797    -0.0209753    -2.71578
1.11592    -0.19243    -3.80329
3.19088    3.20473    -3.05368
-0.771546    3.99952    -4.98964
0.634005    -1.27034    -1.07218
1.9159    -1.65022    -5.86822
-0.260168    1.27402    -2.0119
0.807648    -0.70273    -3.59055
2.02637    -0.654897    -2.27507
2.8896    -3.36792    -4.16471
-4.04419    -1.34793    2.67709
0.625955    0.248707    3.59659
3.3616    -0.429211    1.28988
1.54432    -1.23136    4.49234
0.899237    0.810469    1.62957
-2.35418    -2.47926    2.19477
1.65337    4.76775    3.29644
0.694139    3.05475    5.09404
0.675737    4.46067    3.49067
2.15005    -0.0124375    2.86179
-0.263721    1.98538    1.47772
-0.624633    2.05604    5.07007
-0.795412    0.190441    3.23985
-0.723654    -0.649673    1.28527
-0.914452    -0.484598    0.903065
0.0229804    0.461995    1.30167
-4.06375    -0.678223    3.22574
-1.89119    -1.89735    6.22884
2.7587    0.371737    2.36382
1.49933    -0.851654    4.84136
0.839537    2.48899    2.58411
1.61393    -1.50199    3.20488
1.1142    0.57632    2.20107
3.93058    0.229844    -4.46993
-1.26187    -0.573779    3.25213
-2.12704    -0.183099    2.04955
1.33072    -2.09814    1.71556
3.01025    -2.90973    -0.68755
-0.814047    0.398244    -2.14122
-0.12073    0.0974313    -3.58824
1.32894    -0.233129    -2.40601
0.306007    -0.697071    -1.52787
-0.114554    3.45664    1.60646
-1.81073    -0.880613    2.52579
2.3345    -1.66417    -7.07499
-3.49484    2.29948    -6.52541
-0.839314    -3.15392    -6.91449
-1.02549    -1.10262    -3.65766
0.685227    3.63115    -4.8827
-0.876997    1.19356    -6.19571
1.89962    5.04122    1.84658
0.793055    0.174924    1.91477
1.32451    4.13111    3.37192
0.225215    -1.9296    4.3322
-1.59635    0.860067    3.68257
0.932626    0.0878676    2.8915
-2.53782    -0.219769    -6.57567
-1.10466    -3.02055    -5.12698
3.03782    -0.748702    -2.41051
5.28263    0.510663    4.58215
2.82094    1.68025    4.37719
1.9464    -0.114796    4.71715
4.71294    1.60002    7.78569
-0.254836    -0.374699    4.63978
6.77033    2.26754    3.13523
0.743514    0.414737    9.76443
2.81006    -0.185923    3.19871
0.732963    -0.867495    1.98187
-0.501786    -2.06051    3.78985
0.192419    -0.179579    4.32102
1.44745    -6.23165    6.76361
-3.70263    -1.6689    6.44709
-5.78432    -0.0608918    2.60447
-4.09157    0.292434    4.9108
0.685    1.36588    2.11068
1.26657    0.647976    -1.01073
-0.843593    -1.62281    -2.78879
-2.49806    -0.20816    -3.09592
-1.15563    -0.833621    -4.59801
-0.0438036    -2.42029    -6.13552
0.796734    -0.58836    -3.26663
0.131229    2.15343    -1.77538
-2.50485    0.555158    -1.09134
-0.573727    -3.99173    -4.05738
0.189093    0.454209    -2.41665
-2.76228    -0.535234    -5.1294
1.29854    -3.77193    -3.64052
-0.261235    1.0546    -4.54904
-6.07369    2.56722    -6.50108
-8.15681    4.77443    -4.8397
-4.67321    -2.13881    -5.59424
-1.09391    -0.883965    -3.20513
-0.693985    1.29104    1.45228
-3.24484    -2.82532    3.05919
2.63878    -0.712283    -1.7815
0.353805    -0.207496    -4.22091
5.8474    0.203795    -4.146
2.53948    -1.80474    -3.34788
-0.992765    -1.78956    2.73702
4.40219    -0.81616    2.87661
0.445015    2.72618    3.57694
0.70339    3.38972    4.45768
-0.584244    -2.25589    2.74727
0.69506    -1.06589    3.75672
4.10586    3.26061    3.47502
1.49838    3.48663    1.8852
-0.270933    1.58358    3.13141
-0.75833    1.81587    2.81427
-1.60855    3.3465    4.15539
2.22761    1.2249    5.80873
1.90886    -1.26267    3.24812
1.42566    -0.086178    3.79296
1.81236    0.955779    3.28168
0.970733    0.489566    1.93492
0.0209318    -0.375654    -0.890081
1.62334    -0.445166    -4.29058
-1.56852    -0.186461    -4.11823
-1.71611    0.942665    -2.9093
0.224982    -0.0880891    -1.66443
-0.107699    -0.949685    -2.38212
0.265849    -0.210062    -2.27722
-1.29705    1.42576    -5.75773
0.995165    -0.513758    -1.95251
1.53555    5.03662    -2.53124
-0.892742    3.18558    -2.64112
3.06168    0.70775    -3.17784
-0.110169    -0.249293    -1.8559
-1.22268    1.45167    2.06393
-0.345372    -1.10608    3.62596
0.862939    0.258212    1.78161
2.38748    2.74778    4.64992
-1.75264    -3.61076    1.07469
2.92956    2.72931    2.76143
-0.978932    -0.205009    3.35145
1.31005    0.149929    4.69576
0.742103    0.16372    0.913319
0.0850935    1.11136    1.40117
0.53724    1.08983    4.75252
-0.548802    5.66043    2.35551
-2.04156    2.1653    2.50084
1.4863    -2.57349    3.5678
-4.04441    0.527821    2.1474
-2.40851    -3.72365    -3.99834
-3.55759    0.217486    -4.86161
-0.614155    -1.51919    -2.82315
3.1945    0.967447    2.42141
0.317741    0.213167    0.308543
0.500198    -0.750903    -5.26496
2.3307    -0.430443    1.13189
5.99447    -0.992005    6.30146
5.71072    -8.01879    9.70981
-0.0112213    -1.07826    4.32031
0.21642    -3.95587    8.77584
1.33474    2.82326    2.64107
0.0398828    4.15622    2.9065
3.47992    -1.13248    5.11029
-2.27062    6.43504    7.3661
1.89133    1.12521    5.81314
0.660289    1.74791    5.14912
-0.160533    -1.62388    5.84192
-3.17422    1.24514    3.21289
2.34952    0.612078    -1.4256
4.53113    4.86516    -3.31176
0.49835    0.817296    -1.51019
-5.16176    3.59944    -6.76625
-2.68613    -0.339783    -4.73921
1.30788    -3.60964    -1.35129
-0.0652556    -0.972682    -1.69132
0.82298    0.166262    -1.05102
-0.322594    -0.852214    -0.748088
-0.345495    -1.92141    -3.78426
-0.188817    -0.0615988    -2.3649
-0.628592    -0.354086    -1.9669
-1.27769    0.948624    2.98599
2.41774    0.7683    4.57711
0.0285132    0.60096    2.27114
2.59375    3.18397    -1.86449
-3.32289    0.585177    -6.52243
-2.31258    0.272425    -4.97075
-0.384743    -0.0343429    -1.85203
-1.87698    0.685575    -4.55344
-0.244088    -0.405113    -3.57435
-1.24206    -0.712346    -1.45547
-1.28068    0.00278198    1.0084
-2.55376    -3.43647    6.73606
-3.63106    -2.15511    2.44588
2.38424    3.37873    1.04401
-0.200965    0.752183    5.3075
-0.902609    0.464128    3.20659
-1.10544    1.60398    4.4492
-0.465368    -1.56557    2.85548
-3.43904    0.839273    1.42662
0.307079    1.96896    1.94702
-5.96846    3.36086    -1.7532
-4.67394    0.204553    -8.20464
-3.99303    1.86927    -4.63139
-7.39314    3.65278    -6.20149
-4.76302    6.9878    -1.37579
-2.1935    5.49575    -2.92451
-1.2421    0.147103    -5.18417
-3.54059    0.671367    -4.58895
1.50352    -1.0494    -1.81768
0.330928    -1.42514    1.33654
-0.879632    2.25568    4.08317
-1.83152    2.63562    5.03881
-0.399621    -1.33636    7.15148
5.21853    3.06759    8.59458
6.21089    0.685725    4.24626
7.9202    1.46672    1.97552
1.56033    -0.185805    1.15005
-1.64523    1.60153    3.32231
2.27399    -0.552141    3.38504
0.433325    -2.85878    4.10303
0.811856    -0.800788    1.64335
0.811856    -0.800788    1.64335
2.13894    -0.181925    -0.784215
-0.327585    0.46972    2.455
-2.52484    -1.46579    3.22132
-0.836384    3.32806    4.96065
1.17747    1.65085    7.40559
-2.29821    -1.62954    3.62578
-1.11591    8.18051    4.49744
-0.0903735    5.34554    7.1816
1.57298    3.71253    5.72563
4.05156    -3.73457    4.78635
-2.60182    2.50887    1.67813
-0.223836    2.13725    3.96363
0.464103    -1.12947    1.40484
-0.751371    -0.451673    3.90487
4.10899    6.48716    6.92226
-0.844117    6.52091    7.00433
-3.18863    1.29317    4.07303
1.83355    -0.0472859    8.79267
2.36205    -1.41929    6.55576
4.16034    -0.243395    6.5809
2.19042    -4.01904    2.57186
-0.975311    1.71976    5.32881
1.78203    1.39836    5.48207
1.17232    3.88559    5.25505
1.02542    0.318905    2.12414
-1.67434    -8.57525    5.85347
-3.69661    -8.72583    9.28383
-5.84205    -8.26684    4.2579
-1.45965    1.71747    2.1873
2.3744    0.100319    -4.81306
2.11533    -1.22007    -2.26173
-4.07297    0.789111    0.967983
3.58345    -1.84927    -2.90284
0.989104    -0.185486    -2.56076
0.473452    -0.496538    0.54303
1.70618    5.29773    5.2712
4.04899    5.51743    5.19114
-1.61239    0.310245    5.63868
1.89781    0.396936    -0.766425
-1.87484    -1.81786    -2.29544
2.5118    1.11548    -3.122
-0.6052    2.91161    -3.96848
-3.5225    0.433894    -3.29481
3.88121    -6.15307    -4.90465
0.233404    -4.44483    -1.98534
-0.17941    -1.05731    -2.66898
0.0736789    1.1896    -1.28193
-0.890095    -3.92175    -4.66531
3.48034    -0.405433    -3.68148
-0.442546    -0.451501    -4.97748
3.05381    -2.3117    -4.49922
1.16797    -4.16485    -3.9361
2.97223    -2.89927    -7.00853
3.10923    1.1448    -4.10594
2.12551    -0.80968    -1.10724
4.51392    -0.282078    -4.9804
4.79258    -6.3317    -4.60243
5.31007    -1.05644    -2.91979
-0.671068    1.13735    -3.05099
1.71716    -3.8936    -3.80665
-3.22173    -0.500194    -6.23176
-2.08153    0.809067    -7.99516
-1.25641    -1.45711    1.67567
-0.944549    0.671885    3.95417
-1.85734    -0.39451    4.68823
-0.611507    2.61994    6.75796
-0.815903    -2.0525    4.70242
-1.66973    -2.88801    1.42308
-1.07235    -2.19939    1.24353
-1.16681    1.4522    -1.46751
2.70736    -1.30786    -0.794246
0.634205    1.62506    -1.57349
-3.57471    1.09652    -2.7626
-3.6352    -0.334139    -1.77189
-1.72383    -1.38752    -7.07523
0.667463    -1.94351    -2.62464
-2.00768    1.09892    -5.02724
-9.66883    4.05926    -6.99628
-4.17664    -2.08294    -2.95395
-5.58716    2.64088    2.44226
-2.00553    1.17898    -2.22368
0.529109    -1.28375    -3.82003
-2.89949    -3.33103    -5.40374
-0.23455    -1.10106    -4.33698
-0.584798    -0.888909    -4.69176
-2.49892    0.627444    -1.92473
-0.0659702    -0.0248785    -4.47068
-2.40008    2.63861    -1.47019
3.60801    4.12713    -4.37826
4.81475    6.95499    -6.28609
4.10793    -2.65781    -4.96567
-1.92533    -0.827894    2.70407
1.84162    -2.56919    3.52599
-0.0713549    -2.65329    2.37634
-2.0389    2.00179    2.63872
1.65972    -0.617082    5.03735
0.931608    -0.95448    6.07576
-1.13829    -1.4116    6.03822
-0.160251    1.10819    6.15064
0.230819    0.765261    -1.54743
2.23652    -1.5564    3.09747
1.44247    2.27422    2.63072
0.405171    3.86593    2.16903
0.623353    -2.5924    -4.18395
0.393865    -2.18767    -5.61117
4.08517    -1.96956    -5.16534
1.24696    -0.738516    1.3701
1.74124    -0.867934    -3.40037
-0.50731    -3.3013    -7.01152
3.77494    1.32548    -7.07531
4.90953    3.79001    -3.41048
1.70168    0.360719    -4.16041
2.04788    0.164564    -3.34216
2.22378    -2.49834    -2.80135
-0.301438    3.33509    -2.68782
2.00378    2.3369    -5.64737
0.497643    0.0291983    3.50987
0.107786    -0.295171    2.50678
1.6394    -1.36138    1.90128
1.60311    -2.12377    3.28646
2.40044    5.08817    4.26567
-1.11158    2.32774    9.22633
1.53551    0.514801    5.62447
-1.47166    -0.869115    -1.45201
2.07904    0.932767    -1.69663
0.0399538    1.46832    -6.18964
0.194085    1.61781    -3.60294
-1.69185    2.74857    -3.38392
2.12251    -2.82457    -3.17754
-1.18967    -2.74006    -4.12854
0.359056    0.727144    -3.58352
1.59057    0.669974    1.46326
1.15814    -0.704523    -2.36324
1.04298    0.561498    2.21532
-6.27496    0.836219    1.94267
2.36704    -3.1546    1.43806
3.01779    -5.20232    3.41234
0.0603138    -3.07149    5.35285
-1.71298    -1.90204    3.49593
-0.860479    0.154954    4.40465
0.512245    2.12454    6.47028
0.0149752    0.408057    1.27692
-1.41645    1.19653    -3.83344
0.206936    1.45269    -3.91403
1.46287    -2.09604    -3.27835
-0.201067    -0.989069    -1.16249
0.377104    -2.03479    -2.03597
-0.685192    -0.637081    -5.10717
-1.17007    1.23124    -3.13536
0.919615    0.450632    -1.44655
-0.172622    0.574392    -5.72365
-0.973285    -1.33221    -1.88155
-1.35328    0.204991    -1.0182
1.92543    0.834261    -1.10356
1.63091    0.770786    4.97969
-0.561683    0.436029    2.24668
-1.82234    -0.0630394    2.78792
2.25408    -0.945815    2.03237
-0.100652    -2.93262    4.36056
4.31469    0.465869    3.09343
7.76201    1.31618    5.74909
10.2105    -0.643993    9.59789
2.96849    0.941631    5.97209
-2.11024    -0.993207    3.30472
0.850991    1.44867    -1.058
-2.53704    0.516954    -2.71298
2.62263    0.273629    -2.71577
-1.34655    -0.913737    1.39526
0.67726    -0.524461    1.90791
0.76073    0.46681    1.63566
-2.54243    -1.59347    5.86148
-2.55522    2.33489    5.73223
2.25967    0.484498    1.50681
4.61635    4.76135    3.81444
2.56088    3.52057    3.2868
-0.659432    0.573469    5.28395
-1.51723    1.16678    5.08369
2.8681    0.209273    6.12087
5.48567    0.35809    4.208
2.10212    -4.28876    4.41615
3.79163    -1.65766    4.75836
-0.934098    -1.55838    2.80056
1.1769    0.936763    4.958
0.770433    -1.08098    2.52458
-2.17911    -0.79989    1.55411
1.77181    1.57563    4.97837
1.40055    2.17315    9.10635
0.539955    -1.10353    1.70786
1.37933    1.27781    2.83139
-0.881423    -1.40245    3.6421
-1.28633    -0.918948    2.73746
-0.6352    2.02157    5.2503
-2.62484    2.64858    4.88551
-1.58611    1.16353    6.33885
0.162681    0.828138    4.37784
1.25608    0.910237    3.84098
-1.82164    -2.86328    6.05138
-3.80093    0.285265    5.65653
-6.59546    -3.54688    3.27909
-0.271647    0.41001    -0.566897
1.96725    -0.30449    -4.75337
0.257408    -0.713344    -5.47011
-1.71812    0.241856    -5.695
0.665886    -2.27978    -7.52253
4.22612    -1.06425    -6.58923
-0.165766    3.52204    -9.37314
-3.99858    2.73452    -3.28957
-2.18791    -7.41031    -7.2158
-5.85847    -1.9425    -3.93482
-1.36811    4.01227    -7.72254
-1.30367    0.0954172    -7.32024
-3.08422    1.1096    -3.54987
-3.34526    -0.136901    -2.78932
-3.11369    -2.73048    -3.2204
-2.01618    -3.97277    3.82181
-3.36494    2.57362    1.40606
0.589136    2.93608    -1.69589
1.61308    0.0394152    -4.83724
0.562063    -0.71878    -4.73236
-0.368595    1.19223    -2.97685
0.115049    0.562909    -1.58551
-1.76376    1.12113    3.45564
3.7507    -0.531369    2.99721
1.63565    -1.8113    5.86962
0.0136085    3.59179    9.06128
4.12695    7.25116    3.87041
-2.25618    -1.74146    1.13237
0.0159689    -2.76313    -3.96018
-0.403066    3.74981    -2.53185
2.04461    3.68753    -3.77954
-0.567873    1.49459    -2.60504
0.584653    1.48662    -3.91334
0.660361    3.00335    -5.83206
-0.989609    5.30543    -2.40631
1.01713    -0.36181    1.81932
3.26067    1.83667    2.30383
2.39215    -1.59333    2.29693
5.29728    1.7865    2.53047
-2.09064    -1.0378    -0.429313
0.301472    1.31394    2.72557
0.247245    -0.115796    2.4921
1.4435    -1.0394    8.98285
2.45098    0.881636    4.98957
-3.04103    3.0326    5.82526
-1.76215    1.95842    3.79953
0.862763    -0.36512    3.92323
-1.15079    0.359812    1.71488
3.19495    -1.88955    6.46925
0.0626759    -7.14456    4.79367
1.8476    -0.639123    1.93772
-3.25232    -2.02167    3.45111
-1.36658    -1.72279    2.05336
1.87935    4.3367    7.03974
-2.33187    0.712436    9.66
1.32451    1.23242    3.44107
1.68498    -0.839562    2.41325
0.0343096    3.67888    5.40343
1.99857    5.12701    6.11208
1.20288    -0.350425    -1.05861
3.645    0.79017    -4.78837
-1.49255    -3.26483    -4.63342
0.403086    0.786741    -2.59391
0.693984    2.17044    -3.39538
1.73708    -1.71252    -3.78773
1.69189    -3.41178    6.45882
7.18938    -0.32063    5.53569
4.74656    0.194914    3.34285
-0.571029    -2.27102    -5.61658
2.94057    -6.23697    -3.02815
-0.285598    -1.41756    3.1181
0.0185517    1.78766    1.35256
-1.59414    1.51032    0.980395
-1.25774    2.13003    2.04723
3.97503    -0.194496    3.97133
10.6152    -0.857602    3.13184
0.860116    2.69511    12.1446
5.7892    -0.537483    5.83384
6.83308    -0.676885    8.16035
1.96722    -1.7911    8.10597
3.86225    -3.58236    6.91378
3.28098    -1.78856    7.41456
0.200268    1.7816    6.19396
-0.479893    0.0941968    2.78025
1.48871    -1.01161    4.21105
-2.53347    0.234116    -1.34945
-2.4413    4.52558    3.21647
0.303009    3.33395    3.82661
-0.946772    -0.324907    1.83964
-0.946772    -0.324907    1.83964
-0.38364    -0.691612    3.91672
-0.15031    0.0632951    4.19757
-1.88887    -0.502433    2.99503
2.62339    -1.16617    1.69245
3.59177    1.87962    1.7078
2.67017    -2.47714    2.17807
-0.926757    0.26709    2.72417
-2.59419    -1.56539    6.6784
-2.36791    1.97282    2.31966
-1.33398    -7.11193    1.37698
-4.59061    -3.76797    4.34036
1.27569    0.408139    1.94202
-0.209498    -0.819909    1.23227
5.074    -1.78677    4.81436
7.10809    3.29853    3.68208
-2.71456    1.87044    4.68873
-3.93044    0.593167    0.940979
-1.55255    0.346423    -1.58927
-0.426498    -2.96404    5.16169
2.26582    -4.23    -1.03634
-0.249137    3.69551    -1.86607
-1.16511    3.06077    -1.74868
0.752325    6.60599    -3.36497
1.34098    2.08522    1.88579
-0.530981    3.52361    7.29068
1.63279    5.8361    4.69683
0.230885    6.43753    2.96321
-2.55318    6.50484    7.43525
-5.38377    3.0747    11.5804
-1.52187    0.782167    11.5258
-1.36808    0.22887    3.47202
-2.82644    1.90325    2.62225
-2.97993    -2.25399    4.79497
-4.83533    -2.12585    3.22651
-4.3216    1.57402    7.36736
2.45446    2.04776    5.39946
3.54652    0.644598    8.27406
6.6554    -0.739335    4.23668
6.03357    1.7544    2.08347
3.90248    0.365217    0.69564
-2.7921    -0.574065    5.12166
-1.40499    -0.451718    2.20633
-0.836092    0.392932    2.6905
1.47998    -1.0546    3.08445
-2.33247    0.533149    4.8018
0.772971    -0.000392153    1.31161
-1.12482    0.225654    3.64299
0.166707    -1.30456    1.46706
-3.35205    -0.13022    1.42337
3.16549    -2.14076    -1.39453
0.439318    0.0764449    -3.36188
0.311286    -0.369789    -4.97771
-0.283396    0.0940822    -2.94766
2.93889    1.20286    -2.55769
-1.71962    1.03715    -3.0379
3.17116    -3.18484    -8.58786
1.54852    2.12159    -8.29126
-0.739778    0.76329    -1.99275
1.29675    -0.415739    2.77643
1.03831    0.707989    3.0228
3.86347    -1.15163    1.85602
-0.202984    1.79578    -3.41229
-0.44932    -0.195059    -1.44546
0.325805    -0.273023    -1.6704
-1.6922    -2.40272    -3.96439
-0.424971    0.106909    -5.42047
0.982985    1.65909    -3.68862
-1.96968    -0.657183    -5.278
-1.64272    0.677258    -2.29999
-5.75431    -0.992064    5.42083
-1.79027    -3.14127    8.99253
2.85894    -3.12073    7.63525
-0.828616    -0.113492    5.62685
0.85268    0.570649    3.5457
-2.17351    -2.84921    2.21638
0.0708956    4.23714    4.03384
-1.12749    0.665984    4.3165
-0.204612    -0.76784    1.644
-0.61798    -0.395548    4.92642
-0.463837    0.641229    7.47425
-4.19043    3.28844    6.21091
-1.98231    4.62214    3.89047
0.502245    0.118463    2.3587
3.72972    -2.33292    7.43105
5.81555    -1.69646    4.74718
2.54739    -1.07563    4.1424
0.299247    -0.290716    1.83067
-1.42327    -0.460936    -3.46483
-0.630665    -1.85    -4.70413
-3.17154    1.18767    -5.73329
-3.27207    0.923776    -5.06652
-0.873949    -2.12115    -5.56167
3.25319    1.34972    -6.11638
3.13499    -0.376065    -1.89378
2.38421    -4.86618    -2.79766
-0.0613973    -2.65471    -1.63758
-1.45078    1.61352    -4.57547
-1.29911    -2.81416    -3.10691
2.7145    -0.694562    -1.82997
0.513969    2.12537    3.35072
-1.05474    -0.269283    6.69963
-0.505573    -1.25488    1.62344
1.13854    -1.35245    -1.26109
-1.11905    1.94621    -1.80112
-0.97294    0.751627    -3.75192
2.21578    -1.0518    -3.61284
0.121517    1.01023    -6.70587
3.05843    2.55457    -5.21456
4.29808    -1.81257    -2.70014
1.16958    2.32418    1.00632
-3.9531    0.0657774    5.10203
-1.02044    -3.58033    2.92905
2.35475    -0.697919    2.33167
0.657391    0.431587    4.28865
3.00385    0.192086    1.97998
-1.92399    0.391965    3.29174
-4.76209    2.08278    1.81873
-3.44521    0.822023    1.38928
0.447422    -0.0669992    -5.3158
-1.06711    -0.0699544    -3.454
0.417074    0.955565    -3.86799
0.84735    -0.189793    0.630188
1.15813    0.911835    4.22389
2.29405    1.50778    5.02775
-0.912636    -1.28735    3.10283
0.492318    0.280351    2.77641
0.649324    -0.241788    3.64079
-1.19101    -2.21741    -2.3845
1.64897    1.40102    -3.72302
1.35323    1.01732    -2.50379
1.08657    4.66428    -2.41234
0.41227    -1.59764    -6.52215
-3.97278    2.13927    -5.2135
-4.29277    -1.43174    3.65624
-1.04617    0.468287    6.91392
-0.258059    0.64082    0.975454
-0.659264    2.15751    3.49113
-1.42436    0.294482    2.77071
2.90001    -1.14951    2.30236
-0.10246    -0.483053    2.64149
0.0847006    1.21745    5.70439
-1.05748    0.359055    3.51874
-1.2064    1.843    3.81716
1.13662    -1.10252    -2.78198
0.571146    2.95866    1.51457
1.8543    -1.37848    -3.05557
4.38383    -1.59762    5.97411
4.70586    0.720614    3.87543
-2.70701    -1.90849    -1.41076
2.63159    -3.47913    -5.20747
0.309644    0.426854    -5.1414
-2.57099    -1.03078    -2.63596
-2.90149    -4.09189    -1.80567
-2.26287    -3.99373    -5.19704
-2.86322    -1.1802    -4.53328
-4.02107    -2.66669    -6.07374
0.291249    -7.74541    -6.93846
-3.27442    -0.789201    -4.93156
-2.68217    -4.55973    2.43313
-1.59129    -3.4839    3.08972
-4.31745    -4.45239    6.5343
-1.99901    4.02552    7.78308
4.81238    -0.721703    8.4057
-1.23273    4.41576    2.8994
1.83038    2.53634    -4.54252
1.5224    3.61686    -4.61474
-2.13502    3.60468    3.81544
-5.00972    1.07871    3.41347
-1.48985    0.849126    3.19265
-6.71921    -0.448262    5.22199
-3.71534    0.90301    7.25321
0.932047    -2.84487    6.55125
0.296929    -2.34229    1.58758
2.43567    -5.36587    6.33063
-1.19443    -2.89171    4.10966
2.54128    -0.216531    2.92101
0.149854    2.74179    2.53054
-3.42023    1.09864    1.7689
-3.70449    -0.341098    3.26028
-1.21569    1.03346    1.31347
-1.92554    -1.47102    3.37113
0.358597    -6.42741    5.50108
-0.19638    -3.30917    3.39575
-0.0307921    0.84688    3.56646
-1.09822    -3.32326    4.57327
-5.53199    -0.818845    -3.75502
0.232364    2.99286    -1.17232
0.585566    5.62332    -5.48356
-1.82153    -2.49065    1.32209
-0.784847    -0.813962    3.57048
-1.00949    1.02645    7.73222
-2.19007    -0.525057    1.30441
2.05977    -1.74987    3.1528
-0.0389368    -2.68281    6.19671
-1.5082    -3.73379    0.74491
-2.88263    0.244952    0.938546
-2.56488    -2.91545    8.37749
-3.12568    -1.88004    2.71674
-0.229278    0.776315    2.82549
-1.27843    -0.874628    2.65967
2.03583    1.87604    3.73544
0.288331    1.48468    0.826578
1.3977    0.171868    -3.32844
-0.502415    0.765653    -0.920108
0.485011    3.00851    2.44417
-2.28818    -3.46248    3.21059
-0.257259    0.175999    -1.29691
-0.536281    0.284693    -1.1052
-1.1191    -0.99888    -2.89261
-3.19325    1.20318    2.05889
-0.0821297    3.94219    3.37511
-0.0357424    5.33125    5.3942
0.884134    -1.75194    6.72269
-0.424404    2.44342    1.63309
0.722032    -1.8319    4.52417
4.25315    -3.25689    5.42546
3.09441    -1.60145    3.29198
1.05333    -0.910486    6.37493
-3.26068    2.57465    2.62044
-2.78356    -1.02302    1.7883
-0.930516    -5.94239    3.56695
-3.356    -1.10281    -4.90892
-3.49279    -1.3405    2.66545
0.55808    1.99029    2.20938
-1.17149    0.198162    2.97328
-1.71499    -1.4276    2.69442
0.776375    -1.22765    0.467756
-2.49588    -1.04457    -2.84032
0.673571    -0.721362    4.15016
-1.9769    -0.0277862    6.35972
3.70277    -0.263691    5.88399
-1.94638    -3.39566    4.19389
1.72646    0.953649    4.67754
-1.42379    0.615496    -1.63779
-1.15152    -0.34026    -1.7744
-2.87286    -2.20821    -5.37584
-1.31699    -3.69096    -5.39028
-1.26421    -2.99094    -5.58834
-2.68697    -0.680297    -6.30616
0.0064656    0.22739    -5.49798
-0.617707    0.699887    -1.81865
0.197909    1.05945    -3.64937
-1.86607    -2.36191    -5.08193
-1.46612    -0.464389    -4.18108
1.14355    -1.14374    -5.04782
3.20081    -1.72712    -5.84196
5.90166    -1.25564    -7.2269
5.47814    -3.63408    -2.39174
0.953394    -0.43546    -5.59403
-1.17215    -1.19483    -4.14588
-0.562184    -0.0081028    0.211118
0.910111    2.17118    4.24529
-0.308251    5.81663    3.38745
-1.29749    2.48092    6.34813
-1.10538    -1.37775    4.96
-2.93979    0.32076    5.25533
-0.480971    1.86204    1.70504
0.482326    -2.42742    2.16584
1.67482    -1.53779    3.22398
2.46133    -1.48541    1.84151
0.897219    -0.187692    3.72058
0.444932    -1.37893    4.45407
-0.691568    1.8738    3.06029
-0.41676    4.16601    2.39824
-0.773684    2.59568    -2.08836
0.973153    3.0707    -3.42763
-2.06654    0.392124    -1.86569
-1.14965    -0.9465    -5.87135
1.33489    0.0359631    -1.70415
2.2549    2.47832    -1.25616
1.81801    1.07623    -1.47425
-4.41987    1.77942    -4.66971
-4.95623    0.55724    -3.61553
-3.97059    0.17955    -1.29108
0.460104    1.97186    -4.25488
0.568546    1.94709    3.09584
0.0869662    -0.346326    4.94845
-0.927535    0.47261    2.05905
0.530512    -3.83078    6.46224
-1.34351    -1.66491    4.71693
1.64958    0.756804    3.4887
1.85692    0.518062    7.7487
4.41402    -0.404034    2.95811
4.71283    -3.46784    3.928
0.461284    -3.72618    3.10843
-0.347106    -4.15424    3.79085
3.72466    -0.692316    3.26661
0.149569    -2.2188    2.99662
-0.940298    1.93251    4.33328
0.939621    -2.6984    4.91767
2.71461    -1.88659    4.90601
-1.36102    -0.863137    6.24653
1.19222    -0.760161    3.3142
3.42758    2.46365    5.46957
1.12297    3.53437    1.97131
-1.95283    2.20942    1.18185
-0.329431    0.0618524    -2.40987
-4.78023    0.43496    -6.13642
0.103151    3.5045    -5.2987
3.69247    2.90812    -3.93835
3.22295    -1.53555    -5.70775
-0.329557    -2.8951    -5.31813
1.47655    -0.0273498    -2.1408
2.68262    -4.14764    -3.50368
1.24745    -2.39842    -1.49768
-0.260637    -1.37938    3.87411
-1.5591    -0.907361    -0.724765
-1.20156    -0.3533    -0.525641
-1.48618    0.568143    4.88092
-2.19836    0.855303    6.9928
1.58603    2.60022    -3.8447
0.390121    -1.99566    -7.51834
-1.9977    -1.3294    -6.08177
-1.71402    0.82602    -2.96692
-0.850651    0.310825    -1.19389
-1.21049    -0.436828    5.37577
-4.7094    -2.10998    2.06502
0.760875    -2.40795    3.45358
-1.69718    -3.14998    3.06549
0.0959185    0.963213    2.04239
-0.0811838    2.89531    4.18226
0.0415753    -1.22763    4.16922
1.88097    1.95592    2.81671
2.33437    3.28947    4.3833
1.89323    -1.04088    1.48561
0.628295    0.193225    -1.41866
1.40532    0.787328    -2.5997
0.872681    -1.17995    -2.4224
0.00488376    0.217027    0.354287
-2.24912    3.37922    4.46825
1.45296    3.06439    4.97855
-0.949382    -1.44012    5.07772
-0.0203827    1.38492    5.15678
4.91152    -1.01863    2.97333
2.01547    -2.19218    -4.06703
-1.56671    -5.24104    -3.95958
-1.26943    -1.78929    -1.44802
2.42743    2.50398    -4.96856
1.61691    -2.43518    -1.5492
2.29608    -1.08581    -2.55747
0.0782991    0.357662    -3.35831
-3.8255    1.71429    -2.23279
-1.08604    -1.30346    -2.47553
-2.59511    3.26822    -3.46772
0.312484    1.29194    -3.86335
1.08084    -0.264087    0.871202
0.492392    -2.87058    -3.788
-5.1708    -2.9109    -3.00188
-0.46413    1.93757    -2.56262
1.3404    1.76567    -4.03163
3.84365    4.99737    -1.77039
3.60153    2.39389    -7.08048
1.71764    2.66654    -5.42612
1.18215    -4.8316    -3.44014
0.878536    1.95585    -1.2897
0.575255    -1.928    -3.03381
-0.289955    2.24613    -4.24973
5.19755    -3.04549    -5.8325
5.64786    1.11793    -6.25059
3.52973    3.13666    -3.90595
2.19172    5.12564    -4.35785
1.99508    4.02348    -6.40118
-5.2439    1.21004    -3.56765
-2.80117    1.82056    -1.51741
-4.98459    0.453111    -7.56782
-1.79524    3.19044    -2.07938
-0.545372    4.93554    -2.0121
-2.54801    0.283735    -7.12631
-0.0192519    -0.4027    -4.82201
-2.78594    1.39469    0.653307
-0.264433    1.7543    -4.51493
1.42382    1.40244    -4.79251
-0.359196    -5.32966    -2.04163
-6.03884    -3.80517    -9.71246
1.11502    -3.84152    -2.30065
2.38226    -0.490573    -5.47611
4.88106    1.79266    -4.42582
7.614    3.04679    -1.97497
7.00601    6.93656    -2.95566
3.26762    5.85857    -4.68556
1.21212    4.31111    -5.02552
-2.13892    0.134389    -3.84823
5.8079    -5.10437    -3.05682
0.380792    -5.82402    -2.41133
1.08221    -3.92647    -2.69031
0.0217922    -2.41974    -1.99281
-1.38194    -0.0172248    -6.78142
-0.459192    -0.227811    -2.80904
0.74783    -0.870912    -2.97459
4.23069    1.07877    -3.20116
1.50009    -0.784912    -4.7916
0.28916    3.59193    -4.22962
0.706008    2.65834    -5.66024
3.0341    2.30219    -2.53305
0.0761335    0.222667    3.7388
-0.443761    -0.480782    4.2875
-6.65187    -2.55872    3.54742
-8.4782    -5.05958    3.70314
2.98606    0.892985    -1.47707
-0.309338    0.831602    -2.5214
-1.91859    2.59172    -3.69007
2.06064    -2.57958    -2.7388
0.958316    0.649493    -2.17244
3.49327    -1.11067    -3.70988
3.30731    1.3653    -2.49712
-0.204315    -0.472416    -2.86349
-0.168095    -0.756063    -0.778258
-1.71983    -2.39351    -2.75681
-2.33043    -5.05524    -3.04624
-2.65101    -9.56844    -10.0848
-2.92865    -3.03043    -10.8485
-0.707173    1.20428    -4.58517
-3.18253    2.21782    -3.60961
-0.339847    1.68558    -2.22184
-3.20487    2.22242    -3.2027
-2.88082    2.35399    -2.3898
2.04231    1.05491    -2.07004
3.38226    -2.64299    -6.39484
-2.33866    2.11756    -9.70121
-0.280554    -0.373154    1.51733
-0.488861    -0.853654    1.35167
-2.96188    -1.64375    1.04995
0.0287232    -0.371523    -3.95366
3.63266    0.795437    -2.27154
0.993588    -2.34441    -1.54743
0.203668    0.909679    -2.45779
0.203421    0.25906    -1.78638
0.643157    -4.83568    2.17973
2.97526    -3.69483    5.12047
1.06084    -1.56692    6.05463
-0.954343    -2.04748    3.61778
1.6537    3.12299    0.719228
-2.06702    -1.22998    0.926012
-1.74969    -4.28941    1.99924
-1.2174    -4.2794    5.3143
-0.325192    -5.84819    4.08785
8.3397    2.51582    3.11885
5.21995    9.35932    4.23003
0.348201    1.88623    8.15207
2.13027    0.191384    6.58954
2.20154    0.050944    3.06473
1.04171    0.813643    -4.05933
3.5424    -3.56982    -3.98395
0.713724    2.75102    -4.02038
0.366425    -0.61104    3.50117
-2.04344    1.74525    3.40913
-1.58346    2.81347    3.19047
0.762536    1.24572    3.28227
-0.606343    -1.15153    5.32654
3.67901    -0.443135    5.22475
-0.372753    0.513066    2.11921
-0.330108    2.10281    2.61414
-2.99157    0.0811541    4.45992
-1.14655    0.114944    4.0869
-1.71385    -1.60978    1.22092
-0.835142    -2.8848    1.12953
-0.508176    -1.67736    2.7235
4.48167    -1.3801    1.72372
-0.719486    -1.4245    3.19231
0.452087    -1.29021    3.59376
-3.30292    1.23324    8.59151
1.70241    1.05651    4.35492
-1.90166    -0.548142    1.49078
-2.05335    0.764595    1.43011
1.16248    -0.649329    2.61997
2.41653    -0.103525    4.11381
-0.556328    0.560549    5.46527
-0.985041    1.77171    3.75608
1.70451    -0.11435    9.81294
0.984225    -0.91883    4.91563
0.537397    1.22405    6.716
-3.9245    -1.0631    4.25277
-1.67958    -1.82945    1.50235
-3.11904    -3.03396    2.26051
0.36716    0.851934    2.3983
-3.04305    -1.26086    8.62124
3.82848    -0.503614    6.77623
4.19258    -1.34083    3.78776
0.0256129    -0.293612    3.69698
0.157372    1.01786    3.41792
-0.0632936    1.37201    3.29164
0.846829    7.20232    1.91633
-0.744142    -1.42343    7.61749
0.726992    -1.14124    0.892994
1.21773    1.85418    3.20185
0.440329    -1.48287    1.76675
-0.922398    -0.200912    2.40975
1.80843    3.64002    2.6694
0.911888    3.7725    8.07208
0.661553    -0.528189    3.74525
-1.9501    -1.48177    2.14193
1.65062    -6.78034    -0.851771
1.38616    1.27035    1.92133
2.25174    2.14481    -0.991741
1.83185    -1.99104    0.668574
4.70937    1.32953    2.28481
-0.134021    -0.644816    1.46969
0.854617    -0.246928    1.37631
0.245793    1.34773    3.39934
0.493167    3.06422    2.89338
2.44881    -0.220802    4.3818
0.697938    -0.384279    4.46546
3.87796    2.09295    0.829048
10.8528    1.96401    7.89487
4.03904    -1.27949    6.16119
-0.270801    -3.95749    6.26876
-4.84221    -3.41365    6.13905
-3.63855    -1.36704    8.50571
-1.58972    0.879061    1.4099
-2.56049    1.86194    2.46696
-3.60477    -2.0206    -2.26054
-2.13143    -1.40951    -5.25206
3.22541    -4.02327    -4.17946
-0.0462044    -2.69409    -1.98172
-0.794086    -1.85467    -3.39124
-1.04727    1.16816    -3.29824
-1.57895    1.84386    -4.76454
1.2051    -2.07053    -4.87813
1.10165    1.74516    -2.61287
0.0407325    6.48828    -7.89848
1.29043    1.71664    -6.48559
0.441571    0.68553    -6.22119
-0.424701    3.97332    -5.05263
0.0694663    -1.55117    -2.7988
-1.29808    -0.513774    -3.09872
-3.05652    -0.583887    -4.24256
-4.80204    0.301571    -4.2994
-0.927619    1.19919    -1.67267
2.61682    -1.22656    -4.19703
6.08482    2.29595    -2.95178
3.21142    -0.432382    -3.37276
-1.0279    -2.86435    0.713348
-3.23072    0.507607    2.8171
0.543937    -0.0242052    2.49741
-0.561396    2.14038    -1.66274
-1.75781    0.434532    -5.89229
6.64035    -0.712249    -4.91588
-0.558844    -0.729175    -2.79034
-1.36622    1.05629    -5.20423
-0.336736    0.422262    -7.20118
-7.73365    -4.77882    -8.09246
-2.57492    -0.0879464    -6.9447
-2.6332    -4.14754    -4.08911
0.817113    0.643811    -4.98116
-0.983217    -1.53147    -2.61279
-3.35059    1.63115    -1.83722
-0.429882    -0.309549    -7.16886
-2.12865    0.323386    -2.94594
-2.89867    -0.122116    -5.54945
-1.34966    6.96192    -3.83617
-3.8919    5.45117    -5.65575
0.386563    -0.625626    -4.82208
-0.183359    2.60583    -6.81494
-3.54316    -0.424586    -3.42563
2.90759    0.581894    -3.29256
3.12245    -0.208049    -5.05559
-0.138686    -2.68704    -2.75655
-0.141538    0.394671    -2.03792
-0.389635    2.66999    -4.62724
1.26909    -0.0501416    -4.37133
-3.19115    -1.47614    1.57782
-0.172673    -1.06169    3.57692
-2.53018    0.583385    3.2141
-4.26231    5.64798    5.64602
-4.51535    -0.84869    6.85532
3.02401    -1.40705    4.32147
-1.20709    -0.206782    2.91103
2.45255    0.671373    4.58832
0.899272    -1.61932    5.49771
0.448677    -0.282784    1.33351
-0.184    1.02184    2.41869
-2.46194    1.47913    -2.46148
0.114946    -1.75098    -0.982327
2.60233    2.01976    -2.16694
0.0906212    -2.28446    -4.50898
0.816197    -2.19964    -3.54501
-0.331919    -5.08201    3.8551
1.28628    -6.30304    3.99077
-1.36033    -3.77038    2.99559
-0.75466    -3.47864    5.5595
2.53612    0.926317    2.50929
0.5403    1.19465    5.05475
1.68576    0.956715    3.27937
-0.616311    -3.46021    2.55595
-2.04902    1.62231    1.82119
2.12079    -3.5749    2.89941
-1.28934    -4.12874    3.3527
-1.35457    0.763241    1.17421
-1.05255    -1.0581    3.17886
1.08416    -1.88206    -0.970493
1.83078    0.25063    -1.42392
-1.93429    1.57204    -6.95359
-2.90922    -4.99628    -5.32177
0.462492    0.0217588    2.37836
1.03921    1.77554    -5.75559
4.03563    5.47481    -3.50249
1.53792    -0.663603    -2.68776
-0.199895    -1.08055    -2.84944
1.04771    2.18944    -4.93721
0.302474    -0.573979    -3.24438
0.745439    -0.29323    -1.90681
-0.023547    -0.475559    -2.44056
1.18003    0.736487    -4.26874
-0.867873    3.33667    -6.64176
-4.80027    0.512822    -2.22377
-1.31544    2.70096    -2.74602
-3.23099    3.70864    -2.96372
-1.24814    2.32742    -2.08251
-1.29307    0.585859    -4.26879
-2.5489    1.79119    -4.10864
0.452371    -0.0593894    -5.42142
1.03959    -0.945304    -4.45605
-1.67177    0.772372    -2.48087
-4.37751    3.14371    -4.06237
-0.614303    2.64864    -2.89574
-0.656413    3.22455    -2.22113
0.494376    -1.19808    -5.59097
2.32566    -2.70824    -6.08413
-0.976322    0.580905    -6.85309
-4.38423    3.18919    -3.84049
-0.00829654    4.55186    -4.78104
4.0336    1.60816    6.81225
0.31943    0.292398    3.90267
-3.69896    3.21087    4.44804
1.53807    1.80825    0.532938
2.37992    2.58202    -5.50796
2.64863    4.24826    -0.815579
3.04686    5.47403    -3.94478
6.5808    -0.409572    -5.52595
4.81993    -4.34693    -4.78185
-1.32053    -3.49708    -7.22016
-1.64246    1.88063    -1.46587
0.919504    -0.394073    4.25612
-5.31576    1.54817    4.8447
-0.847467    -0.339157    3.70076
-0.0563917    -2.56221    3.138
2.614    -0.522122    1.9205
-1.55571    -0.0951524    1.258
-2.06614    -1.37174    1.55895
-0.549606    1.00536    1.87617
1.79557    -1.28488    1.21956
-2.40066    -3.67049    2.19027
1.1305    -3.67975    4.09986
2.43062    -1.23946    4.05349
2.77325    0.443895    5.68802
0.901714    -1.74841    2.94779
2.11436    2.392    2.00394
2.06014    -0.791353    3.27517
0.957816    -0.585167    2.22816
-1.00223    0.473861    1.719
0.863509    -0.302465    2.0741
-3.13372    0.929441    3.44887
-1.45091    -0.994118    4.45935
-0.325994    -0.124237    1.77158
3.07498    -3.81206    -2.7214
1.75357    -1.71089    -6.73239
1.67426    -1.35618    -1.73111
-0.219899    -3.0067    -2.02864
-2.85223    -0.936771    -2.66611
-0.848636    -1.06057    -3.02863
1.00279    -0.806017    5.01645
-1.30517    -1.10319    7.105
0.988446    -0.632055    1.81921
-2.34565    -1.63135    3.0493
-1.00061    -0.000785229    2.14339
0.137109    -1.90352    5.80696
2.09991    -3.59146    4.50066
0.191877    2.8821    2.72316
0.456991    0.758384    2.11278
-2.04913    0.343169    -1.78721
-3.94512    2.8421    -5.88715
-2.52911    1.93158    -3.33082
-1.61311    5.43996    -1.12984
2.99598    4.11912    5.49036
0.857    -0.716005    2.90406
0.857    -0.716005    2.90406
0.0464923    -1.09526    -1.56706
-0.107497    1.00249    -5.19845
1.1325    1.55021    -2.09996
-2.8238    1.22554    1.65019
1.20582    0.27511    3.05955
1.9419    -0.668787    1.62505
0.934086    -0.276691    3.22252
0.934086    -0.276691    3.22252
-0.0785904    2.18004    4.9689
0.0928409    0.22042    -1.24647
-2.65494    3.6079    3.81286
0.278157    0.187129    4.89165
0.0517357    2.20318    3.06334
1.49506    0.821708    1.74865
2.80343    -0.699776    2.66616
-1.26585    0.128245    0.862633
-3.24346    0.463769    1.66259
-1.50625    3.53363    9.26597
0.00476395    2.3063    6.20636
-0.210679    -0.703033    3.11056
0.729287    -1.13367    3.67984
-0.00655989    -1.39376    1.71151
-1.35025    -0.591634    1.2491
1.65489    2.22182    -0.77564
5.14786    -1.74533    -3.39109
4.25371    -0.670771    -0.858073
10.8686    -0.792986    -5.19208
4.404    -3.35423    2.63342
1.91114    -4.11181    5.26108
2.23022    -2.30346    2.83793
-1.70013    0.524097    2.01773
2.70586    -0.71876    3.41461
-0.252672    -1.95252    2.14761
2.07411    -1.17667    4.10726
-0.387    -4.09411    2.98631
0.13394    0.379458    -2.83134
0.748754    2.95987    -2.0908
-1.28106    -1.3399    -3.43798
1.05092    -0.974619    -1.24216
1.20262    0.223962    2.79769
1.33332    -0.829632    2.77616
0.0895799    3.69009    -0.93408
-2.99741    -1.0046    -5.2711
-4.94925    -3.57573    -3.28761
-6.03956    -1.21499    -3.92046
-5.10832    -0.00794488    -2.27021
-2.43792    1.80498    -5.05907
