0.950633    -0.974606    -4.88168
-1.83957    0.869241    -3.57969
2.52188    0.997715    4.35502
0.181374    -0.659342    2.74512
3.17549    -0.971106    2.88249
-2.38409    -1.0932    3.76631
1.66151    -2.49313    4.3266
1.68336    2.09093    3.30796
-2.05633    -0.0544459    4.70604
-3.31729    1.41228    4.85681
-1.88217    0.485508    0.670877
-1.05145    2.64663    -2.56446
0.518086    5.86838    -4.46981
-0.896702    1.42993    -0.763536
-1.82876    -0.261646    -2.96841
-1.24641    -1.91345    -2.8228
-0.296787    4.3415    3.04699
0.0620386    1.77968    4.81291
2.15108    0.0695953    6.11862
-0.948846    3.98269    4.76372
-0.773103    2.86081    3.15116
1.11829    0.608657    4.04476
1.01229    0.408721    4.42062
-0.14653    0.266146    -5.77865
1.75854    -1.64788    -2.83835
2.63709    0.206634    1.41313
-0.734793    -1.71453    6.5024
-2.91012    0.0522576    3.53282
-0.29232    -0.0127836    -1.1714
-1.50385    1.66284    -3.44407
-0.203153    0.25302    -2.52452
1.91847    -4.20116    -3.11139
-0.176154    1.33412    6.55027
-0.407534    3.68634    12.1687
-1.21033    5.24012    9.48707
-5.58601    -1.65994    4.69718
0.214416    5.51942    3.82145
-1.38886    -2.93296    -3.78547
-1.06314    0.891548    -2.82634
0.91823    0.169351    -2.73938
0.275776    0.0081522    -2.91087
0.966783    -2.67251    -1.7209
2.61386    1.16648    -3.42817
-1.73974    1.53517    -4.46413
-1.48556    3.75427    -5.86747
2.11599    6.1983    -2.72529
2.28287    -0.728075    -4.20708
-0.0543679    -0.649375    -2.3397
-0.0543679    -0.649375    -2.3397
2.4062    -1.91525    -2.91258
-0.46158    -4.63939    4.17221
5.20682    -1.19921    1.06062
0.364076    2.87601    2.92221
-1.00711    0.842658    2.29423
1.61109    0.716231    4.09828
-1.58835    -0.725285    -3.94467
-0.0773526    1.35305    -3.29737
1.45923    4.39122    -1.83102
-0.640222    3.99496    -3.12019
-4.58154    -0.949168    -2.28509
-3.84791    -1.54721    -5.01089
-1.26904    1.23711    -5.62114
-0.297129    -3.15355    -9.21044
3.11562    -0.318456    -3.9925
2.68425    -1.65548    -1.27932
-0.332548    -0.474162    2.95523
-0.912771    1.04807    1.67845
1.25075    -0.286262    3.5729
-0.09383    0.248304    1.28499
-2.91458    -2.62384    3.70627
-3.15407    6.47776    6.80116
0.251161    0.483498    1.49248
-3.77892    3.58256    2.69777
-0.3457    -0.572081    3.74815
-5.16534    -3.41908    -3.18184
-1.79494    -4.09129    -1.76488
1.08957    -2.33309    -1.94034
-2.54708    -0.510602    -3.2457
1.38721    0.0524305    -4.2865
0.901132    0.21333    -3.7193
-0.853678    1.0797    -7.55995
-3.09787    0.2793    -3.88007
-0.198465    -3.77303    -3.66175
0.611616    2.39636    -2.06647
-1.23357    -1.59216    -6.58991
-0.154318    -2.2276    -1.81476
1.19787    1.59239    5.90936
0.694009    0.898714    1.80927
-1.05046    0.485068    1.10724
-4.22598    3.41371    1.82278
-9.47812    2.08432    1.58182
-1.18209    -0.723502    2.95305
1.64972    -0.380877    4.57908
-1.2499    1.26281    2.21403
-0.729701    -0.23444    1.86786
0.37619    -0.951474    2.83045
-0.615434    0.0519336    3.28866
-0.178063    1.00951    1.21952
3.49454    -1.99633    3.06997
0.617308    -2.49427    -3.63283
-6.02311    -4.44091    -4.23939
-1.59894    -3.92033    2.57302
0.260445    1.53585    -3.68274
3.83742    -0.509107    4.55681
1.38078    2.85582    -1.18284
-0.589048    0.635414    -5.99919
1.4345    -2.60014    2.79732
-2.58624    -1.26281    6.06906
3.6421    2.45858    5.12487
2.04672    -0.497775    1.12118
1.36765    -1.11524    2.23738
1.68419    1.6026    -3.37401
1.82509    -0.898238    -2.54456
-0.42904    -0.747502    -0.995498
-2.56236    1.98832    3.63835
-1.21226    1.82941    2.56002
-0.545727    -2.31693    2.97519
0.963444    2.8499    4.38667
-1.95323    0.738394    -3.66419
0.558408    0.339859    -1.7458
-0.167037    0.806537    -2.202
-0.0931678    -2.88092    -3.8879
1.91681    -0.374156    -4.15652
1.1142    -1.90301    -3.24103
4.02842    0.203832    -3.80065
3.13218    -0.927763    -1.00345
-0.64135    -0.0451761    1.89956
-2.48669    -0.0799078    1.48073
1.59698    0.400772    3.07196
-2.425    1.0489    4.55677
2.09489    3.19738    4.14959
-0.227496    0.124143    1.68427
-2.53496    -0.283327    3.71791
0.632946    0.411981    4.04658
2.29424    -0.189953    3.57384
0.673997    3.18164    5.06631
3.60082    1.84528    2.87984
2.85508    1.55776    1.83438
0.830741    0.212542    4.16698
-0.940904    3.86538    4.2063
0.101439    2.14865    3.42235
-5.79221    0.57874    2.48566
0.105352    -1.57582    6.23553
-0.81519    3.28269    1.46749
-5.65524    1.73791    4.78884
0.351707    0.555742    5.41925
4.7691    -1.22563    4.86247
0.353176    0.969484    6.41601
0.915261    -1.49683    7.67529
-2.74323    3.57273    7.06675
-3.12077    -2.2593    5.88019
-3.60204    -1.43307    3.9563
-2.61887    -5.44054    3.58104
1.55042    -5.34143    0.779658
1.94999    0.977077    1.2912
-0.392444    -0.830235    0.687181
-0.679186    -4.58588    6.195
-9.87872    -3.53269    4.66735
-11.173    -5.46565    10.3076
-6.18054    -4.5085    7.46258
1.09517    0.510246    2.90521
0.647485    -0.246226    1.42861
-0.160313    -0.651172    2.23097
3.26897    0.0565894    3.4168
-2.35243    -1.59136    3.19982
-1.99875    -1.87034    2.32354
0.0823587    -0.793493    5.34881
0.38015    -1.57374    1.46556
-2.46715    4.5449    4.78432
-1.59947    0.623827    1.691
0.545425    0.234731    3.68571
1.90511    -1.50753    3.78198
-0.877232    2.2394    2.87614
-0.000966865    4.12193    4.54529
-0.0508579    1.16008    -0.436942
-3.25494    2.32229    5.00078
-0.623052    1.21125    1.77943
0.651228    2.15186    4.9838
-1.72145    1.62304    7.37693
-1.7471    3.5019    6.22163
2.01067    2.24978    3.37094
0.379505    1.31194    2.39557
-4.75501    3.17603    6.19292
-4.5739    2.59163    5.88237
1.02446    0.63608    5.64655
-4.67519    -0.480343    4.05789
-0.530885    -0.700876    2.13903
-3.21529    -1.23093    -2.91805
-0.462026    -0.966445    -6.2542
0.443186    -0.213311    -2.86056
-0.668989    -4.22051    -5.95426
-3.01083    -1.75263    -2.09805
-0.144382    -1.05    -5.30421
4.20059    -1.64534    -6.70945
2.16346    -1.22171    -5.96391
0.465633    -1.32271    4.31015
7.00477    2.46888    7.37487
6.13014    0.0275705    5.80874
3.24549    -1.67634    7.44732
-2.16019    1.77812    2.05838
0.679585    -0.428177    1.80468
-2.46563    -0.145784    4.12067
3.0043    -3.54571    2.76986
0.569096    0.291298    1.75032
1.38067    1.07918    3.45105
-1.34723    0.757038    1.99347
-2.29839    -5.9063    -6.56131
0.902304    0.0952153    -7.15017
0.276617    0.228294    -4.57271
2.29625    3.64951    -4.13723
6.11322    3.27886    -2.93113
2.22995    3.03564    -2.3132
-0.949838    -2.69091    -2.02453
2.14402    1.84672    -1.76054
-0.512431    -1.36226    -2.35177
0.695422    -1.30039    -4.10334
0.483501    1.02242    -2.85427
5.69712    1.17478    3.16854
0.233764    0.368451    2.26485
0.648276    1.13517    1.68537
0.712686    -6.17617    4.05223
-1.36314    0.144562    -1.19053
-1.71688    0.163509    -3.50782
2.54618    -0.663403    -2.66812
3.2853    -0.110247    -1.89627
1.45933    -2.90039    2.06516
-0.0892684    -0.278093    4.31492
3.402    0.99934    5.47146
4.06814    2.65107    3.16282
0.960515    4.53112    4.07055
-0.0736673    3.73621    5.61938
-4.48661    5.94056    5.83834
-0.838713    5.80849    3.63031
0.339025    4.09922    6.02833
-0.699402    3.36426    3.87987
-0.432888    0.564409    0.805555
-3.23191    -1.19721    3.43924
-0.966741    1.5693    4.97157
-1.47164    3.16801    5.51299
-0.442612    0.394681    3.59091
1.45427    0.431219    1.84732
-1.21016    1.48156    3.48983
0.0673568    0.228464    0.9021
-1.3442    3.61013    5.17895
0.121417    0.289894    6.55858
-1.70039    -1.20909    4.23948
1.20444    -0.21519    2.0368
-0.80336    -0.754867    4.21678
-2.90879    1.18026    2.70534
0.727642    -2.12253    3.03959
-0.855073    1.92757    3.65626
-0.583061    -0.880463    3.02111
-3.08221    -1.11876    3.89139
1.21947    2.03042    2.30181
-0.566769    -0.321417    -1.27378
-2.60483    -2.21217    5.57956
1.66797    2.11265    2.98529
0.530813    -2.56794    6.74738
-0.458854    -1.27985    4.66843
-2.09744    -1.81754    3.63244
1.39627    -2.34444    3.07021
5.74468    4.25561    3.08485
5.54309    2.93377    2.19687
2.64403    -0.480268    3.64344
3.93587    -3.91499    -1.58154
3.13089    -1.73391    0.421825
-2.40129    -0.462764    1.86358
1.83796    -0.819232    2.2076
2.66587    -0.751389    6.43664
0.495675    2.77037    4.41472
-0.227104    2.77397    0.874562
-1.28941    1.94573    -1.57263
-1.25616    0.485915    1.54474
-4.66295    3.77471    3.55723
1.17306    4.38921    2.76534
-0.592108    -1.19154    4.06009
-0.147193    -0.254572    5.40712
-3.23801    -1.60177    0.994883
1.72998    1.8068    2.78309
-2.23591    0.37293    2.93259
1.4264    0.834659    5.11547
0.380875    1.65605    4.24281
1.49353    3.2318    9.99753
1.64596    2.83289    1.73046
0.612187    -1.01866    0.938303
1.22214    -2.81788    6.77472
0.455361    -0.579464    1.2552
1.03913    -3.44144    1.33342
-0.02392    -1.50329    1.57374
1.89629    2.07922    4.19641
1.43273    3.88968    1.87134
2.83142    -0.314215    3.70853
-0.787006    0.0933091    3.28811
1.31302    1.36864    1.30249
3.79048    0.708574    1.96975
-0.0232457    -2.54602    4.80677
0.629302    -5.68608    4.89178
3.64839    0.861441    2.79091
1.33467    -2.44334    9.5024
3.73688    -0.743712    2.47766
2.13463    -0.995354    5.02747
1.09728    -0.498243    9.0616
2.38194    1.41871    6.7547
-1.4997    0.650341    5.55877
-1.22165    1.69903    -0.952938
-4.05445    2.03019    -2.82827
-1.10662    2.26495    -2.81992
-2.52913    -1.61925    -3.43677
-0.79337    -2.8725    -4.65583
-1.44254    3.86854    -4.13835
-0.265107    -2.10836    -2.41504
-1.72865    -1.10365    -1.29698
0.527722    1.75173    2.56376
-0.438121    0.726758    3.49698
-0.253984    0.591503    4.38374
-1.28792    0.690553    2.24886
-3.26442    0.52054    5.39626
-0.116569    -0.865054    2.8798
1.72005    2.92391    1.93409
2.55628    1.08917    4.6738
-3.01149    1.92326    1.99095
-1.899    -0.248076    4.66997
2.07819    -0.292966    1.69674
1.9444    0.610359    4.57189
2.84727    0.011709    1.92591
1.31182    0.515316    1.92611
0.401976    -3.01064    3.46491
-0.246738    1.07952    1.80166
-0.593949    3.3904    -4.31714
-0.581245    0.672129    -3.75156
1.11581    -1.49376    -3.19122
-3.48123    0.338862    -7.92389
-3.26577    -5.85755    -1.1099
-2.9986    -0.0299539    5.58647
0.484797    1.46134    3.69285
2.41176    0.0340758    2.80407
1.38077    0.314463    1.72555
1.04614    -0.927606    1.52828
2.91589    -1.07577    6.29701
0.207189    -0.374859    3.1683
-1.01366    1.8978    7.5834
-4.15215    1.74436    6.71888
-0.140452    -1.81077    1.35027
-3.90073    -2.59393    3.01596
-3.30569    -2.04651    5.57173
-3.28922    -2.03504    3.18648
-1.11352    -1.01826    4.61013
-4.00101    -0.694695    6.0255
-0.482083    5.71784    3.64878
-0.613466    1.7851    1.7793
-1.70121    4.41961    -4.54284
0.830918    2.5586    -5.08659
2.93036    1.10821    -4.49909
-1.81805    -2.91493    -1.14516
-2.73077    1.41116    -1.69067
-1.34572    0.174477    -2.78401
0.796734    -2.33056    1.24515
-2.51622    0.0106233    2.68829
-2.51622    0.0106233    2.68829
1.01755    -1.26665    2.97725
-0.446166    1.15228    5.44511
-0.277129    2.37264    0.61433
-5.2183    -1.37532    -5.35785
1.97552    -2.4501    -4.84665
0.473759    -1.15287    -3.36519
2.46839    -1.29982    -2.14849
-0.496769    -1.07032    -2.26011
-0.430465    -2.59559    -3.58342
1.28646    3.46143    -4.8817
-0.978357    0.788531    0.738522
1.60255    -1.94709    3.47381
0.708308    -0.882516    3.10045
-1.05871    -0.455476    3.39892
1.42551    -0.289711    4.2067
-2.1285    -2.97181    6.36233
3.63617    0.520642    9.70326
8.27551    -5.05884    5.99544
7.31164    -2.37813    6.72502
1.47968    -4.43753    1.76356
2.74954    1.45477    2.96351
-0.971292    -1.63127    3.14056
0.542214    -2.45013    3.89121
-3.09381    -4.23142    5.94768
-2.04993    -1.30245    2.59575
0.97856    2.82104    -3.50215
0.295782    -0.605621    -1.88013
0.501593    1.86028    -3.46919
0.303707    -1.5346    0.634121
2.83641    2.65946    9.69719
-5.02948    2.96153    12.6982
-1.13124    -3.67507    4.8507
-2.06526    -3.42521    2.84249
-1.87126    -4.76326    2.98268
-2.80268    -2.35929    1.85154
-1.80338    -1.6452    4.1613
2.16875    -0.736287    2.95993
-1.67197    0.583807    2.95753
1.92762    -4.63005    4.11819
0.812292    0.242916    2.14784
1.42282    1.95055    4.95086
-1.27265    1.92952    4.2079
-0.210306    1.9767    4.43879
-0.85747    -1.04902    2.5413
1.00076    0.0804594    1.68721
-4.19052    -3.91624    4.54734
0.788995    0.252618    1.57274
0.114816    -0.387632    2.3308
5.54239    -0.0505527    -2.37273
1.90763    -1.71768    -6.23532
0.598419    0.525917    -3.11249
0.275896    0.52868    2.41954
-3.2873    -1.7052    2.33687
-2.37305    0.291112    1.26206
4.72928    -3.11426    5.97622
3.86146    -4.96067    6.72994
2.05929    -2.68714    6.22387
-0.828791    0.588675    1.50103
0.769969    -1.63907    3.94437
5.20606    -1.66594    3.47804
1.38504    -1.23573    2.53038
1.23782    2.59503    5.28374
-0.200061    1.19127    2.69453
2.17766    -0.447137    3.19544
0.83573    0.871925    2.02689
0.951773    2.83035    3.80838
1.85484    3.66549    5.82403
1.7322    1.08172    6.23716
-2.23732    1.96926    5.36974
-0.73071    -0.927839    2.88051
-0.257465    -3.74492    1.65848
-0.812927    -0.769654    1.48865
1.33826    -0.09057    1.0802
-1.14148    -0.470627    2.84113
-1.12577    -0.306271    3.79165
-3.99018    -0.245509    -6.95564
4.69055    -1.0984    -8.53522
3.46047    -1.63702    -9.00237
1.70791    -1.64887    -6.83669
0.935527    1.37401    -1.27832
-1.64125    5.71323    2.33811
0.975153    6.37134    4.83319
1.07231    0.821856    -1.05133
0.392763    -2.93777    -2.99045
-0.869153    -3.7021    -6.17944
-0.481923    0.392887    -1.92838
1.54589    2.57829    2.26255
-2.1359    1.92109    2.45817
-1.89829    -1.40555    1.36547
5.91261    2.84048    9.05368
4.12291    3.86428    13.6389
-0.157126    1.88353    7.92537
-1.16521    3.76175    8.03559
3.50649    -1.72978    6.06354
2.26639    -3.33267    4.22749
-2.20952    2.04105    6.36472
1.30906    -0.298645    4.83724
4.21604    3.38493    3.79415
-0.19958    1.66369    5.43448
1.59214    -0.792427    -2.07092
0.946213    1.44897    -2.39309
1.04614    1.72609    -3.44146
3.21077    1.87475    -1.23641
1.76147    -0.718164    -5.38052
-2.40654    -1.94857    -3.14693
-2.1401    -1.5139    -2.06859
-1.01385    -0.947873    -2.25782
2.05756    -0.0713784    -2.45482
1.00549    0.595473    -2.74962
0.256898    0.0272067    -1.50583
-1.92519    1.94823    -2.91792
-0.255535    -0.183081    -2.53481
-0.255535    -0.183081    -2.53481
0.63701    0.43526    -5.50399
-1.08451    0.702017    -3.13206
1.56675    5.00087    -3.26584
-3.51859    1.8992    -5.06034
-2.82298    -1.12764    -1.7408
2.59302    -0.921047    -5.1206
-1.24176    -5.35677    -5.8752
-2.17687    -5.83858    -1.19336
-1.10563    -0.891574    1.24267
-2.32718    0.577967    2.14371
-0.00927503    -1.71808    5.98498
0.177665    0.840142    2.93008
-1.8018    -2.31516    2.10459
1.08972    -1.13003    1.64938
2.23938    -3.75071    3.15532
-1.44899    -1.47276    6.87637
-2.42717    -0.924872    4.7786
-2.20969    -2.40745    5.19443
-4.23687    2.02198    1.81929
1.63559    0.119329    4.20712
1.6958    1.9587    3.39718
-0.547118    -0.972371    2.47007
-1.18659    1.36664    1.35704
-1.14903    0.489591    3.13889
-2.29761    -2.11504    4.73561
-3.72444    2.18764    -2.20562
3.92111    3.35244    -0.912258
0.0503654    -0.389666    1.29516
-0.229844    -4.48261    3.37703
0.283679    -1.83643    9.15172
-0.40846    3.42579    7.21839
-2.38562    -1.09879    6.01349
2.03737    -1.4777    5.10419
1.2351    -1.68363    3.42911
-1.85209    0.0899073    4.57954
-1.70387    -0.588154    2.79126
1.43523    -2.02688    2.5225
0.963306    -2.27612    5.06415
2.31475    1.97783    7.94478
2.00919    -0.501348    12.1074
-0.963066    -7.21329    5.49568
0.0652433    -4.75344    1.86099
-6.15052    -2.28009    4.84072
-4.04692    -4.17397    2.47883
-0.0338388    -0.967303    6.98668
-3.74067    -2.96727    6.93044
-2.5714    -5.0364    2.2828
-4.08657    1.29735    3.66655
-0.524884    2.16856    2.59238
0.12969    -7.40837    4.67882
3.01362    -3.09394    1.84131
1.52236    -1.5558    2.51379
0.196098    2.2669    3.96302
-1.09015    1.13586    3.43996
0.0728895    -1.2001    2.85824
-2.80849    -0.841961    2.11444
-2.07379    -2.21224    3.34426
-0.10481    1.203    5.04353
-0.00394397    -0.444706    3.85786
1.35638    1.137    2.91625
0.245971    6.49234    5.43146
5.30948    -1.64842    2.45831
1.56459    -0.436595    3.25595
-0.392996    0.0983428    2.2452
-1.62098    0.487569    4.97675
0.143847    2.40649    4.77391
0.748718    4.12216    7.44916
-0.387684    5.82643    3.45386
0.759239    3.87521    3.72827
3.72215    -1.4153    4.67967
6.83091    -5.83686    -1.17988
3.29265    3.08566    -1.90537
-0.439029    1.80535    0.78193
-0.120076    1.01345    1.24871
-1.53989    0.396913    -4.53645
-4.97771    2.24459    -8.03964
-5.81303    0.256785    -5.45519
-1.26788    -1.72048    -3.99265
-0.61275    0.106779    -4.03525
5.21138    -6.58898    -3.98782
6.2478    -6.0477    -3.93034
3.69103    -1.39734    -1.65845
-0.865172    -1.93241    -3.19593
1.24962    -1.69334    -1.70866
2.81857    6.0027    -5.43202
4.90838    0.300796    2.93526
2.78444    -0.317919    5.7108
1.26781    1.08608    1.81967
1.86666    -2.77594    4.60497
1.6117    0.330055    8.03258
0.683591    1.89301    9.65049
-3.28843    -1.64901    3.96599
2.28581    -3.46424    4.15558
0.192747    -0.0192177    3.08578
-2.67182    0.096441    6.97543
5.11273    -2.13603    5.89642
1.26591    -3.61751    2.91998
-0.80237    -0.0537009    2.30429
4.31277    0.139287    1.75237
3.58886    -2.5493    2.53393
-0.586313    -4.47605    1.71254
-3.66804    -1.6455    3.14545
1.84346    2.77337    3.18455
-2.89456    2.95697    4.65443
-0.512619    -3.56016    1.62595
0.0855971    0.361716    2.27252
-0.316559    0.257589    5.03181
1.1012    6.05326    4.09715
0.747953    4.8321    2.2392
2.38163    1.42944    3.48843
-0.579194    -0.567827    2.40799
-0.529673    -0.00896156    0.696706
-2.83489    -4.99068    5.34861
-5.23537    4.3969    3.00039
1.70238    3.47541    8.41938
-0.208626    -0.8662    6.96515
-0.627508    0.304407    6.69184
-0.626981    1.32411    8.71109
-1.42986    -1.847    5.93682
-0.111229    -1.71464    1.1702
0.380719    0.747057    -2.37782
1.299    0.424103    -3.87519
0.288951    0.793422    6.22054
0.842584    2.55927    -0.733475
1.32033    2.06603    3.05849
0.592087    -0.585384    3.64343
2.01992    -1.24916    3.89846
-1.51726    -1.53258    2.19691
0.214482    -0.909012    -2.48195
-0.689396    -0.261419    -4.60598
-1.4457    -0.000637626    -4.98675
3.62399    0.693591    -2.93052
-0.88472    1.56918    -2.29149
-3.49189    -1.67286    3.90991
-1.85525    -1.97317    1.96679
0.755282    -0.684011    1.295
-1.203    1.07007    2.93225
-1.83202    5.00701    7.78319
-4.08522    -1.02431    8.72358
-0.886052    6.76065    5.96257
2.59492    2.33662    6.50164
3.62409    -0.564556    2.85561
0.0783513    -2.19452    7.85402
2.43162    -7.04982    5.22514
5.30476    -2.96393    3.01471
0.361342    0.46654    -0.757975
0.725746    -2.4569    0.738627
3.79709    5.27091    1.77813
1.57084    0.985583    1.96509
-1.33607    0.70729    1.35935
0.0108695    2.97857    5.54013
1.63803    3.37501    -1.44429
3.37829    1.64145    -1.73043
-1.30004    2.88628    -2.49883
-1.94938    -1.88839    -3.40362
-0.335674    -0.687762    -4.13865
0.994349    0.0160104    -1.92545
-4.31048    5.50491    -4.89841
2.56416    -2.34886    -6.0713
-0.718277    -0.3179    -3.23853
-0.50453    3.02682    -2.3326
-1.84905    2.80979    -2.24787
0.46386    -0.0242466    -4.57344
-1.29381    4.71034    -1.94066
-2.096    0.93409    2.51525
-0.473836    0.864725    -4.36283
3.28879    2.28407    2.7899
2.20611    4.17862    6.41423
0.765824    2.34814    1.86018
-0.625177    4.97342    3.04139
-0.674375    4.23989    8.99871
1.68284    3.40659    5.14713
2.00677    -0.072904    4.10628
-2.53913    -2.34964    0.786967
1.47182    -1.20214    3.30774
0.0862013    1.64574    5.25972
2.06004    1.5232    5.99462
0.705525    1.35672    2.28743
0.23598    -1.07383    0.988435
0.10621    -0.384511    4.41091
-2.2215    1.67579    6.20896
1.07252    -4.22036    11.2966
4.97949    -1.7255    5.50073
1.35949    -0.357059    3.81582
3.16837    -1.9153    3.55205
2.05552    -0.809626    5.80705
0.805679    1.00826    2.21556
2.38213    -0.0468695    5.85161
-1.09962    3.25612    3.3805
0.88698    1.00849    6.22055
-1.06358    -1.55856    -1.79883
3.0996    0.729405    -1.03819
3.0501    -1.39881    1.39575
0.193029    0.539067    3.33909
2.0752    -0.215654    4.95732
2.66958    1.33877    5.38364
0.833315    -0.451551    3.03179
2.83456    -3.61246    8.79605
3.48882    -6.82962    10.1885
4.07557    -2.61247    6.72797
6.48936    0.96236    3.76712
0.535373    -0.602446    8.15731
-1.33201    0.855647    6.56604
0.743868    -1.04641    4.2127
2.79499    -2.42742    4.73857
4.40582    1.30065    3.16776
6.02057    3.13804    3.68712
4.24645    -1.56501    4.97197
0.462296    0.889565    1.14251
-0.166387    1.83027    2.43285
-2.16799    3.74227    3.12316
-2.38143    -1.98151    3.5604
-2.28563    3.89886    2.76381
-0.690899    1.81457    2.64165
-0.852822    1.64618    2.12996
0.220877    -0.62443    4.58678
-0.338064    0.76266    3.48533
0.732143    -0.422273    9.18406
-0.716225    -1.15802    4.86591
-0.906222    2.65676    1.90376
-0.349407    -4.9203    3.43322
0.183768    -4.12082    5.00572
5.02989    -0.128622    6.10224
-0.104094    1.99232    2.17835
-2.40523    -2.40746    2.72215
-0.124441    -3.86473    2.69329
0.0309588    2.11941    2.02887
-0.435955    -0.721414    1.97962
-1.57606    1.17529    -1.63005
-3.15115    -4.4301    -0.741342
-3.27369    -2.41892    -3.15895
-2.56953    -1.38541    -3.87557
-4.67548    -0.235113    -3.7374
-1.96722    -0.980452    -4.20034
-1.85664    -1.9991    -3.62404
0.738489    -2.3643    -2.70451
0.344233    0.227252    -1.7147
1.9747    -2.27733    -5.12424
-0.270028    -3.32011    -3.12042
-0.7429    -0.791853    3.06612
-0.868283    -3.25928    2.13136
0.671925    2.34776    2.63715
1.42832    0.886685    7.60023
-2.09729    4.94411    10.213
1.19855    3.15113    6.66329
0.723509    -2.91785    0.801568
1.27485    -0.987076    3.98714
2.25888    -2.50647    2.94691
-0.393586    -0.0446316    2.29275
-1.76026    1.60247    2.62698
0.500955    0.706532    1.79063
1.23142    0.165773    7.26772
-4.67149    -0.351224    7.25622
-0.0513479    0.0964442    3.70319
1.80327    1.01164    3.7675
3.34638    4.9659    2.4437
2.28721    2.58295    3.60233
-0.629755    0.202114    3.39912
-0.559082    0.674715    -0.37689
0.269726    -0.0636626    2.87715
-2.33697    0.960054    -1.03947
-0.958941    0.0569137    2.45173
1.81967    0.43948    1.95423
1.81967    0.43948    1.95423
-1.8447    0.545811    2.35119
-3.3011    -1.66742    2.30115
-3.0102    0.971716    -2.12256
-0.54071    -2.18017    2.4606
-0.356812    0.201208    1.47596
0.33653    -0.490128    1.66307
1.66843    -0.908941    3.60219
-3.16925    0.318818    5.49419
-0.982057    -2.2905    3.69398
-1.38721    -1.86177    2.85196
0.216156    0.618065    2.64381
-3.48447    -0.254831    3.33523
-1.16662    -0.849276    2.71079
0.569691    1.38876    2.72529
1.21615    2.03604    -1.31411
-2.81    -0.824971    -2.38662
0.282329    -4.00034    -1.75858
-0.185854    0.0806509    -2.63459
-1.1235    0.0376504    2.8049
1.80865    -0.219729    -2.12438
2.73423    0.0451911    -2.39468
-0.160593    -1.70455    -3.06604
2.52122    -4.34826    -3.27096
-1.27851    -2.04023    -2.11995
-0.134246    1.69811    -6.70122
-1.49974    2.77255    -3.32596
-0.209679    0.631302    -3.46027
-3.98887    -0.460951    -3.27334
1.60654    2.01122    3.26591
0.466574    0.689329    2.27088
4.30411    1.96449    4.18141
3.6563    -1.05275    5.6458
-1.1301    0.522553    2.28599
1.04198    -3.76563    3.67947
0.971521    -1.44758    0.845117
-0.806526    -1.78468    -2.27203
-1.31808    -1.21707    -4.31234
-1.06277    -0.616436    -5.05487
-0.807778    1.00665    -0.853094
1.67069    -1.40921    -0.753714
-1.07792    -4.27843    -3.92839
-2.38473    0.742215    -2.70842
-0.889987    0.354786    -3.54304
0.705291    -2.50168    -1.70643
-0.612142    -3.53741    -5.95677
0.380093    0.972075    -2.30955
-0.595677    1.62667    -2.79509
-3.203    1.61478    -3.17898
0.50396    -2.18794    -5.30372
1.76466    -1.22621    -3.06416
-1.25855    -0.000564646    -2.83321
-1.5355    -0.670838    -4.37108
2.08517    3.3085    -3.86562
0.390475    0.339788    -2.95368
0.093251    -3.74772    -6.00987
0.60978    -1.30772    -1.40495
-1.7681    -1.71846    -1.45646
-1.23883    0.93414    3.56588
-1.76494    -1.81669    4.98581
3.27387    -2.7254    10.1875
2.61563    -3.05237    10.9777
3.72573    -3.71807    5.41141
-1.26753    0.904963    4.65622
-1.11115    -1.36024    2.42619
1.5093    1.18888    2.08513
-1.5683    1.30243    1.67842
1.0219    -0.0663493    -6.95155
6.43882    -0.233663    -3.94415
3.51472    0.228684    -5.41383
1.10267    1.7616    -2.05449
-0.603252    3.35418    -7.06313
-1.50695    1.0682    -9.32156
-4.74083    1.51578    -3.19986
-6.85783    1.89937    -2.5418
-1.4249    -2.43057    -5.55342
2.93297    0.364304    2.11851
-1.52493    -0.292845    6.04834
-2.47425    -0.331121    3.83977
-1.60042    0.502568    5.24179
-0.672465    -1.14779    5.79799
0.434816    -0.573963    3.9346
-0.266121    0.434225    1.60225
1.44942    -1.04344    2.29891
1.15904    -0.917043    1.97052
1.43188    -1.69032    3.49901
1.13916    -1.19716    7.11651
2.7994    -3.1867    5.63405
-7.48562    -6.09736    8.94525
-1.61527    -4.9711    9.03233
-1.69801    3.10099    3.75567
-0.48156    0.365361    3.56681
2.42202    0.120382    -5.00502
-3.8079    5.14169    -5.26357
-2.32517    -0.974576    -1.88636
0.600037    0.999816    2.4849
-0.2114    1.67301    2.54283
1.84984    2.06933    2.63853
6.72346    -2.48763    5.00043
4.81011    -1.53748    7.14003
0.854525    0.918965    6.7356
1.86484    1.44705    2.27999
1.93213    0.924976    5.95631
-0.171295    -2.12568    3.11292
1.48428    -2.97901    4.39591
-2.32037    -1.47908    4.52152
-2.05856    -3.94877    4.8815
0.345083    -1.01723    2.4752
-2.8493    0.0101288    5.05916
-5.64029    -3.04198    5.54459
-0.788392    -1.53779    3.02304
3.3456    -0.603834    3.46466
3.27181    1.36489    3.97952
-0.183534    -2.13799    1.46175
1.12395    0.155266    4.24286
3.23997    4.83106    4.50023
3.93401    2.68795    2.60096
0.276886    -0.392009    3.56083
-0.133394    1.52245    1.92671
3.57586    -1.046    2.67713
-4.93329    -1.27725    6.10647
-6.80698    -2.32332    2.81461
-4.62734    -0.255577    6.35367
-5.80684    -2.05601    3.84167
-2.9453    -4.44376    6.28436
-0.251826    -0.738108    2.62912
-1.56997    0.543545    1.78952
-0.232889    2.21675    3.95232
2.86625    0.371514    1.48132
2.25548    -2.06961    3.2019
-1.22865    0.551775    6.59674
1.08598    0.0896774    2.25143
1.36117    -0.771262    -4.23405
-3.45706    0.901142    1.68945
-0.65407    1.08378    2.02217
-1.6527    -0.793626    2.64056
2.62007    2.43546    4.26152
-0.747982    2.27903    -2.93159
0.332235    -0.151348    -2.75693
-1.79493    0.524969    -2.72117
0.0757315    1.95136    2.45973
2.85632    2.56061    1.94192
3.43066    2.19805    4.43319
2.90228    4.79358    4.43153
-0.132003    -3.91086    4.15373
-4.76836    -4.74096    8.12173
0.27698    -3.30155    6.53801
-1.50026    -0.889225    3.19161
0.269559    3.17847    2.07766
1.85069    -1.46837    3.42682
0.117894    -0.363501    2.45605
-0.0600607    -2.26737    2.46804
1.13369    0.608581    1.35357
0.0958594    2.60139    2.04987
0.711653    0.748305    3.32703
2.612    0.14143    2.08615
1.05659    0.532909    2.38532
-1.71059    -0.138763    3.59448
0.218965    0.0939098    2.27882
-1.05015    -1.06604    5.35673
-3.66629    -0.520855    5.88617
-2.53144    0.540842    2.96703
-6.99141    2.62085    4.1339
-1.93307    2.70655    2.31837
0.827946    0.938214    -0.458137
6.63581    0.100336    2.74266
0.598104    -1.94627    3.75598
-1.03433    1.79822    4.79306
2.75582    -2.68418    -5.73355
-1.03965    -2.31867    -3.37004
-3.3192    -0.0074374    -0.769965
1.03861    1.04191    -3.6604
0.698644    2.3264    -3.15316
-0.769649    2.76377    -3.27499
3.20342    1.20733    -5.77757
1.4855    2.43919    -5.78907
1.86552    -2.72159    -5.09588
-0.17971    0.152004    -0.355644
-1.5609    1.91322    5.10629
-0.706061    -3.83151    2.75113
-0.0224277    -0.0179849    -1.30907
-1.02824    -1.32497    -3.91538
1.15931    -1.86281    -2.57912
1.29623    -0.490922    -2.6959
2.07892    -2.55919    -5.44944
0.155331    0.0212662    -2.8834
4.0906    2.57648    -4.49155
-0.902003    2.57995    -3.34662
-2.13765    0.840901    -4.55683
0.104428    0.38876    -4.57568
-3.6094    1.29092    -2.58848
3.43261    0.0864578    -4.60861
1.93925    -1.31811    -3.13511
5.11369    -0.489968    -7.42838
3.70557    -0.438477    -2.77899
0.0608417    -0.1635    -2.58273
0.478123    0.601793    -0.961949
-0.542944    1.26207    2.09914
5.63533    -1.91887    5.98151
10.8656    1.96647    8.15761
8.34358    0.411694    6.3356
4.29866    3.27115    3.76002
0.99997    -0.119681    5.44854
1.27195    0.920557    3.90186
1.71226    2.22198    5.55257
-0.540862    3.6522    4.76515
0.493593    -2.92553    5.7001
1.1979    0.224189    1.87027
-3.25337    -5.09116    -4.5004
-0.384302    -1.88504    -2.35664
-0.476516    1.12292    -2.61716
0.364663    -1.06115    2.4695
0.786044    -0.912539    2.57222
-0.309846    -0.479943    2.07177
-0.252464    0.466652    1.94396
2.79114    1.29251    5.85144
3.62328    -1.96387    3.0206
3.98068    -4.96263    3.1461
2.97458    -1.8545    4.17541
2.68281    -3.00786    7.61601
1.88853    -3.06899    3.12308
-3.26002    0.929387    3.46094
2.79577    -2.37733    2.48018
0.946774    2.69788    5.46709
-0.840634    2.42082    2.06625
2.61895    0.543711    5.6223
3.23603    0.309458    1.00473
4.38394    1.14564    -1.93244
0.253499    2.45742    -1.22826
1.3801    -0.141311    1.51383
1.23776    0.0278287    6.84618
-1.85358    1.8552    2.43088
0.277526    -0.419585    2.1797
-1.03973    2.69751    4.12361
1.31171    1.74913    4.20299
0.0736108    -3.09196    3.07012
-1.25832    -2.20071    3.19061
3.16927    1.4484    6.29026
0.378978    -1.28164    4.07396
0.0576964    1.87354    1.69309
-0.904224    0.955813    -1.19294
3.07645    0.108938    -2.51135
2.26079    -0.923599    -2.88917
4.93564    -2.97983    -4.24122
-0.51805    -0.117163    -1.92925
-2.21417    1.16946    1.88314
-2.91882    3.29946    2.21273
-1.78603    -0.473124    2.00611
1.33695    0.0874713    1.28369
-0.431984    -0.0172979    -3.17849
0.13594    0.895397    -2.3889
-0.18712    -0.862859    -1.05915
3.473    -2.04561    2.45324
2.00559    -4.4206    7.48734
-0.0503816    2.37135    10.474
-3.28414    -4.41844    4.41978
-0.3828    -2.01045    1.79952
0.87813    -1.28788    3.47788
0.00561968    -1.76926    3.24263
0.913912    0.220676    1.33089
0.145851    1.36839    4.40837
-0.00649894    0.371429    5.85947
1.25656    3.33614    4.73273
-1.01234    4.15627    2.64821
-3.48627    0.716354    2.54253
1.96344    1.46969    4.83841
2.84976    -2.37276    2.98621
-1.22431    -1.72683    2.4066
-2.23571    -4.09104    2.72242
1.06547    -0.072289    2.7807
1.77488    1.82456    2.74571
2.5073    0.522452    1.18107
-0.727275    1.50966    2.99514
0.481721    -0.660525    7.01442
3.69307    1.07949    4.23349
2.94571    2.02697    3.26216
2.26446    -2.04521    1.50514
0.612013    3.47673    -4.19091
1.86076    2.93055    -5.47667
1.91846    3.95415    -3.87229
-2.21845    -1.32279    -4.10008
3.24922    -0.510962    -5.29694
1.39007    -2.26465    -4.04815
0.413011    0.84924    -2.94098
-0.602239    -0.879083    -5.74298
-6.06282    4.75044    -1.71655
-9.07    -0.0142666    -2.999
-8.09407    1.63302    -3.97692
0.0185968    -0.396148    -7.23444
2.22796    -2.3442    -6.04109
2.82506    -1.39643    -1.15262
-1.21125    1.09625    3.83623
0.0223177    0.786712    2.46734
-0.983476    4.28216    3.67635
0.776068    -1.79728    5.0143
-4.79946    -4.13488    3.56635
-2.39845    -7.42761    5.03571
-2.56727    -1.26818    2.63712
1.723    -0.140643    7.69068
1.18941    -1.63203    4.11701
2.76022    -1.85667    -1.34726
-0.0533505    0.324732    -1.75383
-1.16388    1.21959    2.99556
-0.32151    0.0150077    -1.13782
3.22251    -0.462953    -5.14295
-4.10776    -0.442529    -2.62395
0.462779    -0.428756    -0.688542
-1.73527    -1.38692    -1.93718
1.0017    4.99667    -3.46025
-1.94701    5.30948    1.20094
1.73578    -0.25269    -3.27067
1.61195    2.2979    -1.16788
-1.92678    2.0615    -1.60901
-1.19031    1.93632    1.66917
-0.594337    1.20405    2.94539
0.605032    0.177528    3.1128
1.83525    1.95372    4.83056
2.73999    2.2157    10.1027
0.847527    1.16254    3.32032
-2.33159    -0.919355    3.62876
0.192149    -0.00158487    6.19852
-1.79681    2.45047    3.25301
-3.44796    2.74862    2.67831
-3.93303    -1.48488    5.15132
0.664511    2.06144    4.9323
0.968738    -0.0119362    1.89343
-3.04776    -1.24342    4.26781
-4.23677    -0.260167    -4.44877
-2.17879    2.34637    -4.15804
1.08012    2.14785    -7.35955
0.770832    -0.113271    -2.36654
-0.455699    -1.59427    -1.61286
-2.36658    -0.871466    -3.50709
0.236399    -1.22908    1.13692
-0.39735    -1.62561    -1.71848
2.21708    -2.87099    -8.78007
-1.42921    -0.256261    2.05639
-4.07153    3.44374    4.69635
-1.51503    -4.19986    4.53033
1.44795    2.83298    2.95685
5.19884    4.38695    7.84599
1.51258    3.14811    12.1166
2.48889    0.786619    9.8495
-0.90134    -1.32913    2.22637
0.306816    -0.548885    4.28732
0.219385    -0.0383495    4.23925
0.338419    -0.569758    3.44765
-0.884917    -0.485473    -1.05409
-2.41705    1.25028    4.07392
-3.921    -3.30455    4.03603
3.63074    2.43323    4.43937
0.237175    -0.646237    3.58241
0.491581    -1.08593    -1.99786
-0.740899    0.443265    -1.64923
-0.795174    5.314    -1.68714
-3.84713    3.7902    -2.2489
-5.45245    3.38757    1.09631
-3.35138    6.33972    3.59816
-2.42019    2.00836    -2.6581
-3.9401    3.31248    -3.85848
0.0940205    -0.993409    -2.70234
-2.12695    -0.963145    -2.64426
-1.72777    4.58704    -4.14977
1.33188    -2.3369    -2.62985
2.73607    -1.04458    -4.15324
0.256617    2.26232    -4.67302
1.48647    -0.636288    -3.50247
1.79336    2.85452    -2.78208
1.03096    -0.548207    -1.91992
-0.733898    -2.39056    -2.31048
1.65404    -0.913612    -2.6459
1.09574    3.44427    -5.31048
-0.326146    0.304224    -2.34099
0.335582    2.00605    -4.29757
2.96594    -0.953048    -2.73567
-0.792638    -0.697298    1.46047
0.237369    -2.93445    4.07364
-0.23485    -0.263195    2.12449
-4.32707    -2.59434    7.45838
-6.43894    2.05687    6.5876
-4.01344    -2.78    5.24254
0.293266    -0.138579    2.05595
-0.808388    1.1138    2.87735
-2.28058    4.34959    0.858245
-0.853786    -1.94723    -4.85199
0.433692    -4.3396    -2.20263
-0.936396    0.579936    1.87399
2.16035    0.172542    5.03373
2.66907    -1.31453    4.31515
0.712228    0.378096    1.97538
-1.29437    1.54728    4.89633
0.318602    -1.29847    1.03787
-2.44226    0.981167    -4.10192
-1.19382    1.7843    -1.49741
-4.46698    5.48122    -4.36992
-1.57063    -0.548421    -3.05985
-0.477332    -2.63689    -1.77257
-1.44206    -2.55293    -2.80578
3.55862    2.35299    -3.87341
-0.0975656    0.111973    1.50626
1.19387    0.421086    2.61793
0.57579    -1.76458    4.23103
-0.585642    -0.408058    1.56181
2.91227    -2.24841    -0.766146
1.78445    0.297022    -5.4786
-4.38376    -0.236843    -2.87324
-0.704173    -1.61177    -2.91978
1.23464    3.3594    -3.59115
-1.99626    -0.459292    -3.07463
2.27224    -0.43544    -6.37445
2.38126    -0.874892    -5.68431
-0.907763    1.39789    -3.28148
0.241373    1.03744    -0.298395
-3.28434    -0.293299    -4.45502
-1.05576    -3.20349    -0.757806
-4.05081    -1.64975    -2.59579
-4.14734    -0.256241    -2.69076
2.90805    1.25418    -3.73436
-0.351495    2.32502    -3.05711
1.16837    -1.8132    -2.46115
3.24338    1.72846    -3.37528
2.09648    -0.921526    -5.58403
1.13268    -2.98974    -2.88785
1.42363    -0.740426    -1.88944
-0.880649    -1.12396    -3.47298
-2.27684    2.76803    1.41326
-1.68306    1.84703    11.0362
-7.67781    -2.27871    6.12274
-0.342196    -2.49981    8.25088
-2.53205    -0.0407757    3.13377
-1.90775    0.443064    2.30536
-4.07434    4.27015    3.41407
-2.78777    4.86956    2.27175
-5.54899    2.68623    5.5162
-4.69045    -4.17118    4.70476
-4.70648    -0.14807    2.34977
-0.195285    -1.767    4.38588
-0.941065    -0.447333    3.5142
0.351197    0.0146623    4.40022
-0.402342    0.424265    1.25008
0.667239    0.149951    5.93697
-2.34295    -0.866541    4.65746
0.175415    -0.498656    2.87118
1.29503    1.0188    2.51428
-1.72335    0.272697    -1.69977
-1.75848    0.432547    -5.32376
-0.378916    -3.93035    -7.10946
-4.09093    -4.72812    -7.78904
-4.80089    -6.0979    -5.11912
-1.30302    -2.40531    -10.7625
-2.41566    4.46745    -1.77393
-0.686313    3.25268    -4.87806
-5.40251    -1.02929    -3.09881
0.213955    1.32908    -7.49991
4.33737    -9.58255    -3.84832
1.62974    -6.98669    -4.95713
-3.29182    -0.951986    -4.81244
0.89148    1.08635    -2.59398
-0.137403    0.305379    -2.72569
-0.137403    0.305379    -2.72569
2.421    -1.38324    -3.95379
-2.02412    -0.436351    -1.60871
-0.298003    0.109316    -2.53048
-0.69035    -4.43219    -6.22391
6.76758    -1.55442    -9.62781
6.45847    -3.1517    -6.96471
-2.2253    -2.32138    -1.5284
-0.988152    2.53063    2.89063
-1.57893    0.776321    2.22653
-0.950782    0.811885    2.03095
-1.2993    -1.4648    1.46271
0.385008    -2.10542    4.11871
-2.60138    -0.470889    6.312
-0.119777    -1.89674    -4.56096
0.680219    -1.29457    2.48555
-1.43969    1.88809    4.70114
1.19966    1.69519    4.09507
2.52802    -1.35985    2.51579
0.432555    -0.0785874    2.48559
1.08276    -3.87096    -1.3418
0.175759    -1.46132    3.92874
1.85794    -0.372673    2.82915
2.57783    -1.89288    4.45033
0.576864    -1.68311    6.10003
-0.444424    1.33513    6.23607
1.54528    -1.03985    0.508267
-2.25745    -4.95482    -4.28894
-1.59102    0.343915    -3.67401
0.702766    -0.0102288    -3.76104
-0.767548    0.0663103    -0.870356
-1.49671    0.0108225    5.28032
-0.192378    -0.360545    -1.78508
0.47228    0.139066    -5.43606
3.28028    0.877064    -3.45635
-0.762488    -3.25634    2.40012
2.30526    -0.292674    3.82537
-0.351877    0.302043    2.08802
-2.97562    -4.27233    11.9799
0.82566    2.84839    10.2687
-3.2787    1.96714    3.54305
3.32834    -0.279971    2.45574
0.782864    -0.413831    -1.10521
1.84386    1.09256    -3.26538
1.33848    -0.840445    -2.444
2.93739    -1.05098    -8.39183
2.09618    -2.61259    -5.77157
-1.81117    -4.10309    -6.34549
-1.1699    -7.12407    -5.18013
0.766406    -7.78795    -8.59715
-6.56731    -0.433186    -3.79812
-1.04473    3.19703    -3.61883
-1.42401    0.162942    -4.61414
-2.07984    -3.45017    -2.66783
0.10605    -0.834605    -3.1345
-0.240007    -1.15469    -7.93821
2.70173    -1.41788    -4.65509
3.56023    -3.37293    -3.5922
-1.10442    2.03235    -4.14442
0.218634    1.02871    -1.19561
1.95482    -0.987115    4.77801
-1.79756    1.2959    3.25944
-1.151    -1.34589    2.37047
0.512557    1.08188    7.01856
2.06223    4.49598    2.84083
2.35866    5.36012    0.756117
3.70306    4.50214    -2.87498
-1.31863    1.04504    -3.35237
1.44806    0.497823    -2.43604
1.84808    0.766329    -3.74326
4.36669    -4.16908    -5.34588
5.78912    -2.60755    -12.0035
6.92522    -3.78013    -6.58824
2.96333    0.173432    -9.27972
0.612855    0.628961    -1.80207
-0.26864    0.0614155    -1.5539
-4.56716    -7.23593    -5.34305
-4.10603    -4.98534    -4.70923
-0.800811    2.32736    -6.05643
2.25669    -1.93154    -1.96567
3.88691    -1.04485    -4.86329
2.47031    -1.79765    -7.09299
3.66329    0.365301    -6.38619
3.57197    0.0777189    -4.65616
-0.486552    -3.13051    -5.6298
-0.0316497    2.79527    -4.96086
-3.64777    2.44453    -4.6055
-2.73902    1.29521    -3.16567
-0.995232    -0.351641    -3.05805
-1.72561    1.00014    2.01688
1.73569    -4.41817    3.6796
-4.24918    0.538351    2.83921
2.12683    -0.0541909    3.67923
-1.12643    1.27966    7.43897
1.59961    0.317414    3.14683
0.31768    -3.16251    3.42155
3.15966    -0.577066    3.59662
0.815171    2.26733    3.23637
-1.22142    1.53727    3.13326
2.42211    1.37657    -2.89594
2.87738    -0.82628    -3.25496
1.5078    -0.69518    -1.11942
3.69437    -0.561087    -3.65424
8.22648    1.42328    -3.25124
0.694484    0.230412    -2.26256
1.66646    1.08749    -2.76258
4.54347    -2.47089    -5.42622
7.00552    -1.02993    -0.809802
0.221881    0.164567    -0.715581
1.38286    -1.41569    -4.78651
-4.32468    -3.70779    -4.1971
-3.79203    -7.21318    -1.21758
-1.41981    -2.80136    -6.64947
2.38931    -0.715353    -2.52169
-0.356134    1.05339    2.20493
-0.186431    -0.293894    1.82939
-1.10886    -0.394247    3.53483
-2.23757    2.05616    3.04551
1.11207    2.42914    2.87288
-2.64595    -1.38524    -2.77888
2.35764    -1.10109    0.643338
2.50715    -4.3006    3.20112
3.75312    -1.27928    2.76681
-0.914058    0.0265481    2.45535
-0.148238    -1.43073    2.61113
-0.364338    1.62281    1.6664
3.70768    0.499767    4.17148
-1.92269    0.851181    4.90071
-6.3895    -3.1557    5.14649
-4.71951    -4.04531    5.21658
-1.91649    -4.66101    6.55578
-1.59625    -1.52389    2.05174
-1.6553    -1.81802    2.7163
-3.4977    3.54847    6.771
-0.160324    -1.56931    2.22315
-1.96067    -0.700994    3.53467
-0.481729    -2.10946    4.65324
-5.17087    -1.52807    4.32334
-2.78708    2.58357    2.1536
-0.0073884    4.22428    1.9928
1.69039    5.293    6.91074
-6.13516    2.91129    7.65596
-3.4402    0.598483    9.489
-3.06056    1.11142    3.01549
0.156155    1.63408    7.20143
1.56338    1.15126    2.01873
-2.47877    -6.03516    6.02753
3.42075    -3.29935    8.39198
-0.0233746    -0.511205    6.22123
-1.40638    0.728869    6.40437
1.02565    -0.831065    0.591136
1.13599    -2.21537    -5.08058
-0.56929    -0.0570169    -3.35394
-1.7415    1.2076    -3.85562
-0.416071    2.73499    -4.31409
3.98306    2.31841    -3.96107
-0.865447    1.00212    -6.97343
2.74222    -2.3481    -7.84688
1.47305    -1.61023    -6.10842
-3.35448    0.0105208    -2.62822
-1.11083    -4.38429    -2.7388
-3.3166    -0.898733    -4.52937
-0.138625    0.656536    -4.56884
-0.656711    2.43431    -3.57528
1.64781    5.88015    -3.78481
-1.93666    -1.79012    -6.80732
-6.09378    2.62441    -3.41372
4.19042    2.86119    -4.8793
0.896593    0.121271    -5.19456
3.30657    2.49544    -4.68401
0.173887    0.620217    -3.16435
-1.87639    -1.81306    -7.33344
1.46996    0.0538881    -5.11408
-3.97326    1.01126    1.00445
1.01071    -1.78106    1.24631
-0.36516    -0.149476    2.60022
2.43354    -1.62998    3.25703
0.452903    3.85207    2.22108
4.22268    -0.10648    3.38899
3.3522    -2.70895    2.65322
0.185217    -0.944028    7.02839
-4.68745    -0.0770353    2.79631
-0.1361    0.0232147    2.71638
2.81227    -1.88071    1.96883
-0.746718    -0.117231    1.60295
2.14144    -0.142338    1.38643
1.16933    2.48979    3.77384
-1.38098    0.567035    3.16785
1.31178    -3.9801    8.23683
-0.227711    -0.624957    1.22277
-0.227711    -0.624957    1.22277
-0.29798    -1.621    2.46791
0.0930659    -1.83559    0.60883
0.242548    0.0429705    2.29425
-5.9802    -2.51679    2.97181
-6.17439    3.21523    5.72502
0.175795    1.34482    1.05245
-2.72499    -1.13513    -3.60865
2.30212    -0.449229    -1.13104
1.33896    0.29261    -1.88371
-2.00786    0.871943    -3.8904
-2.4538    4.07738    -3.1632
2.80756    0.497626    -2.01799
-0.0639625    1.22533    5.58126
1.05517    -2.78664    2.96257
-1.10276    -4.33513    4.73692
-0.316123    2.53554    1.73204
-2.94418    4.8374    3.68599
-2.0357    2.27879    5.1214
-2.60027    -3.131    -2.05885
-0.786019    0.131478    -4.83934
-2.13402    -0.397594    -3.97924
1.38755    1.67295    -2.34849
0.65263    2.16834    -1.48673
-0.132136    0.990387    -1.11703
0.899764    -0.91633    2.45154
3.31352    -1.87193    -1.07524
4.30794    0.508966    2.58563
2.79868    8.58279    8.05587
0.145589    4.67923    2.79726
1.64641    2.19821    1.52066
1.25486    0.531725    -3.27861
-2.82541    1.66047    -5.31682
-7.1108    -0.631296    -10.8535
-0.47407    2.0365    -9.06708
-1.28965    0.730014    -2.43857
-2.7001    3.54794    -3.02722
3.66618    -0.293094    -0.92061
-1.95898    -1.73298    2.01208
-1.95898    -1.73298    2.01208
0.730816    2.32642    1.66917
2.30847    2.26486    2.66083
0.172618    1.64773    4.05125
3.6811    1.37779    2.65906
4.55513    -0.0280844    5.38136
7.84901    -2.72061    0.513653
9.21978    -8.24429    6.91762
-1.01578    -6.94557    6.65293
0.426152    0.487419    3.1967
-1.39389    2.14835    3.82258
3.42583    1.99243    2.28074
-1.20477    1.53675    -3.49339
-3.98371    -0.819272    -4.97093
-0.0999944    -2.41156    -2.58766
-2.57033    -5.32823    -2.7466
-1.41363    -2.57822    -1.07031
-0.493614    1.70418    -0.80748
1.98976    0.548623    -0.859814
3.98026    0.0360395    -4.21315
-1.07457    0.740666    -5.5809
-0.851193    -1.20372    -1.48836
1.89747    -0.667974    -2.59252
-1.07247    0.371842    -1.20292
2.69694    4.83394    -5.62413
5.32712    0.638113    -5.19228
1.56942    0.209557    -8.13092
-1.59341    -1.68464    -4.14044
-0.284766    -3.31007    -7.62396
-4.17618    -1.18318    -3.9472
-2.4486    -2.08128    3.17903
-6.58221    -2.48656    1.30694
-0.603614    -0.186857    1.88865
-2.13824    -1.71324    5.58393
-3.36134    1.09884    2.26681
-2.75585    2.79778    4.24311
-4.68472    0.465898    3.62079
-2.26826    0.758188    3.47226
-1.03125    -1.50482    2.80288
5.39033    -0.0775497    2.33354
7.43119    -4.35563    5.16364
5.52445    -2.52565    4.65041
2.9465    0.879218    2.28546
0.06759    2.66327    5.3428
-1.23969    4.47267    4.02758
-4.52604    1.4    4.21429
-0.944178    5.51735    3.95865
-1.93944    -0.0822303    5.90981
1.23332    0.927647    5.33435
3.76825    1.75284    1.6428
2.09482    3.96739    6.44388
2.07323    -1.36769    3.8692
1.67225    5.56433    3.21725
-1.63478    -1.63368    1.77388
1.76544    -0.188827    -5.76549
-0.0145162    0.425897    -5.63381
-1.52047    -1.68479    -6.61541
-3.07375    -0.356133    -5.07823
-0.169461    -1.46807    -10.8078
-4.10517    -3.09873    -11.4898
-1.1074    -5.24936    -4.63884
0.320471    -1.61463    -0.799042
0.458549    0.252102    -6.49967
1.54514    0.169277    -1.88542
1.2545    1.57204    -3.72833
2.65917    -4.09756    -3.37575
-0.269068    -0.520307    -1.96322
1.65314    -0.575251    4.22151
2.80451    1.21317    2.32178
2.61828    -3.78714    1.7056
-1.5631    -1.07324    2.16718
1.20122    1.98084    6.02095
1.67048    -0.742511    3.31086
0.408782    4.70368    8.48775
-3.13048    0.738652    6.6705
0.394024    -0.176093    3.87943
1.14573    -0.275327    6.99227
0.321231    -0.0484833    2.33393
-3.66593    -1.97976    2.32395
-1.09472    1.42792    5.81641
-5.48069    -1.15786    2.88806
-3.43856    1.3501    4.87799
